  # .PCD v0.7 - Point Cloud Data file format
VERSION 0.7
FIELDS x y z
SIZE 4 4 4
TYPE F F F
COUNT 1 1 1
WIDTH 976
HEIGHT 1
VIEWPOINT 0 0 0 1 0 0 0
POINTS 976
DATA ascii
  -7.0258682e+01   2.7241638e+01   9.5851569e+02
  -7.0235657e+01   2.7676363e+01   9.5818469e+02
  -7.0218323e+01   2.8113049e+01   9.5793127e+02
  -7.0213936e+01   2.8554760e+01   9.5785437e+02
  -7.0191727e+01   2.8989088e+01   9.5753479e+02
  -7.0162216e+01   2.9420040e+01   9.5711530e+02
  -7.0149635e+01   2.9857847e+01   9.5692676e+02
  -7.0103912e+01   3.0281191e+01   9.5628632e+02
  -7.0120293e+01   3.0731121e+01   9.5649274e+02
  -7.0091072e+01   3.1161036e+01   9.5607745e+02
  -7.0042412e+01   3.1581806e+01   9.5539709e+02
  -7.0028099e+01   3.2017635e+01   9.5518506e+02
  -7.0021904e+01   3.2457073e+01   9.5508392e+02
  -6.9992630e+01   3.2885590e+01   9.5466779e+02
  -6.9943359e+01   3.3304184e+01   9.5397931e+02
  -6.9904938e+01   3.3727417e+01   9.5343848e+02
  -6.9913307e+01   3.4173035e+01   9.5353619e+02
  -6.9839737e+01   3.5019264e+01   9.5249951e+02
  -6.9804543e+01   3.5442501e+01   9.5200330e+02
  -6.9784401e+01   3.5873024e+01   9.5171204e+02
  -6.9774445e+01   3.6308578e+01   9.5155957e+02
  -6.9732086e+01   3.6726959e+01   9.5096552e+02
  -6.9724487e+01   3.7163342e+01   9.5084540e+02
  -6.9699409e+01   3.7590199e+01   9.5048712e+02
  -6.9685234e+01   3.8022648e+01   9.5027740e+02
  -6.9674004e+01   3.8456573e+01   9.5010791e+02
  -6.9664795e+01   3.8891472e+01   9.4996613e+02
  -6.9663437e+01   3.9330700e+01   9.4993127e+02
  -6.9661011e+01   3.9769279e+01   9.4988190e+02
  -6.9668007e+01   4.0213299e+01   9.4996106e+02
  -6.9669052e+01   4.0653893e+01   9.4995911e+02
  -6.9658051e+01   4.1087410e+01   9.4979260e+02
  -6.9666344e+01   4.1532318e+01   9.4988971e+02
  -6.9657333e+01   4.1966885e+01   9.4975067e+02
  -6.9647293e+01   4.2400688e+01   9.4959747e+02
  -6.9648254e+01   4.2841156e+01   9.4959448e+02
  -6.9715881e+01   4.3323055e+01   9.5050043e+02
  -6.9676292e+01   4.3738499e+01   9.4994452e+02
  -6.9687347e+01   4.4185566e+01   9.5007935e+02
  -6.9704826e+01   4.4636883e+01   9.5030145e+02
  -6.9719269e+01   4.5086464e+01   9.5048224e+02
  -6.9711243e+01   4.5521530e+01   9.5035699e+02
  -6.9777649e+01   4.6005592e+01   9.5124609e+02
  -6.9816963e+01   4.6472454e+01   9.5176611e+02
  -6.9851830e+01   4.6936810e+01   9.5222552e+02
  -6.9710014e+01   4.9923378e+01   9.5018134e+02
  -6.9691048e+01   5.0349918e+01   9.4990698e+02
  -6.9636436e+01   5.0750271e+01   9.4914697e+02
  -6.9609375e+01   5.1170158e+01   9.4876233e+02
  -6.9574005e+01   5.1583576e+01   9.4826477e+02
  -6.9513878e+01   5.2417034e+01   9.4741400e+02
  -6.9464104e+01   5.2818233e+01   9.4672021e+02
  -6.9444023e+01   5.3241562e+01   9.4643097e+02
  -6.9438789e+01   5.3676079e+01   9.4634399e+02
  -6.9433556e+01   5.4110550e+01   9.4625726e+02
  -6.9404579e+01   5.4526306e+01   9.4584698e+02
  -6.9344055e+01   5.4916702e+01   9.4500659e+02
  -6.9323303e+01   5.5338089e+01   9.4470856e+02
  -6.9319717e+01   5.5773033e+01   9.4464429e+02
  -6.9306381e+01   5.6200008e+01   9.4444727e+02
  -6.9291656e+01   5.6625717e+01   9.4423145e+02
  -6.9292763e+01   5.7064259e+01   9.4423114e+02
  -6.9284683e+01   5.7495186e+01   9.4410583e+02
  -6.9273560e+01   5.7923462e+01   9.4393903e+02
  -6.9254311e+01   5.8344769e+01   9.4366168e+02
  -6.9240829e+01   5.8770725e+01   9.4346307e+02
  -6.9238243e+01   5.9205811e+01   9.4341241e+02
  -6.9214783e+01   5.9622910e+01   9.4307800e+02
  -6.9207970e+01   6.0054153e+01   9.4297009e+02
  -6.9213860e+01   6.0496376e+01   9.4303510e+02
  -6.9227440e+01   6.0945503e+01   9.4320538e+02
  -6.9217087e+01   6.1373535e+01   9.4304932e+02
  -6.9190826e+01   6.1787239e+01   9.4267645e+02
  -6.9122971e+01   6.2163223e+01   9.4173724e+02
  -6.9097481e+01   6.2576717e+01   9.4137512e+02
  -6.9064201e+01   6.2982773e+01   9.4090686e+02
  -6.9052773e+01   6.3408504e+01   9.4073651e+02
  -6.9024261e+01   6.3818272e+01   9.4033325e+02
  -6.9028763e+01   6.4258408e+01   9.4037982e+02
  -6.9037827e+01   6.4702873e+01   9.4048859e+02
  -6.9121986e+01   6.5218338e+01   9.4162042e+02
  -6.9319832e+01   6.5842850e+01   9.4430103e+02
  -6.9321419e+01   6.6282204e+01   9.4430804e+02
  -6.9339241e+01   6.6737198e+01   9.4453619e+02
  -6.9348183e+01   6.7183784e+01   9.4464337e+02
  -6.9436729e+01   6.7708168e+01   9.4583502e+02
  -6.9439888e+01   6.8149818e+01   9.4586340e+02
  -6.9390602e+01   6.8539734e+01   9.4517767e+02
  -6.9410324e+01   6.8997643e+01   9.4543182e+02
  -6.9389442e+01   6.9415161e+01   9.4513306e+02
  -6.9345711e+01   6.9809395e+01   9.4452283e+02
  -6.9315384e+01   7.0216682e+01   9.4409540e+02
  -6.9317810e+01   7.0656982e+01   9.4411414e+02
  -6.9277313e+01   7.1053261e+01   9.4354828e+02
  -6.9252876e+01   7.1465652e+01   9.4320135e+02
  -6.9236710e+01   7.1886269e+01   9.4296674e+02
  -6.9205093e+01   7.2290573e+01   9.4252209e+02
  -6.9180283e+01   7.2701645e+01   9.4217017e+02
  -6.9171265e+01   7.3129082e+01   9.4203326e+02
  -6.9155121e+01   7.3548836e+01   9.4179938e+02
  -6.9143074e+01   7.3972748e+01   9.4162115e+02
  -6.9132561e+01   7.4398193e+01   9.4146393e+02
  -6.9127823e+01   7.4829735e+01   9.4138550e+02
  -6.9123573e+01   7.5261780e+01   9.4131384e+02
  -6.9139977e+01   7.5716370e+01   9.4152325e+02
  -6.9175934e+01   7.6192726e+01   9.4199908e+02
  -6.9272774e+01   7.6736969e+01   9.4330402e+02
  -6.9349182e+01   7.7259644e+01   9.4433057e+02
  -6.9302010e+01   7.7644852e+01   9.4367444e+02
  -6.9336929e+01   7.8122009e+01   9.4413629e+02
  -6.9435394e+01   7.8671555e+01   9.4546338e+02
  -6.9483803e+01   7.9165314e+01   9.4610870e+02
  -6.9409500e+01   7.9519119e+01   9.4508331e+02
  -6.9410896e+01   7.9959183e+01   9.4508887e+02
  -6.9419540e+01   8.0407661e+01   9.4519287e+02
  -6.9404121e+01   8.0828232e+01   9.4496948e+02
  -6.9398972e+01   8.1260643e+01   9.4488586e+02
  -6.9419113e+01   8.1722740e+01   9.4514661e+02
  -6.9421310e+01   8.2163910e+01   9.4516309e+02
  -6.9424957e+01   8.2606789e+01   9.4519940e+02
  -6.9425262e+01   8.3045700e+01   9.4519000e+02
  -6.9410637e+01   8.3466698e+01   9.4497766e+02
  -6.9415443e+01   8.3911034e+01   9.4502985e+02
  -6.9414398e+01   8.4348267e+01   9.4500244e+02
  -6.9413300e+01   8.4785454e+01   9.4497418e+02
  -6.9403870e+01   8.5212402e+01   9.4483264e+02
  -6.9392906e+01   8.5637337e+01   9.4467035e+02
  -6.9383362e+01   8.6063881e+01   9.4452734e+02
  -6.9379860e+01   8.6497841e+01   9.4446655e+02
  -6.9360168e+01   8.6911491e+01   9.4418549e+02
  -6.9365051e+01   8.7355850e+01   9.4423907e+02
  -6.9365089e+01   8.7794113e+01   9.4422662e+02
  -6.9383202e+01   8.8255402e+01   9.4446039e+02
  -6.9377914e+01   8.8686989e+01   9.4437561e+02
  -6.9371414e+01   8.9116966e+01   9.4427423e+02
  -6.9358498e+01   8.9538574e+01   9.4408563e+02
  -6.9363190e+01   8.9982872e+01   9.4413672e+02
  -6.9352989e+01   9.0407822e+01   9.4398529e+02
  -6.9344627e+01   9.0835052e+01   9.4385876e+02
  -6.9336716e+01   9.1262787e+01   9.4373846e+02
  -6.9334930e+01   9.1698486e+01   9.4370154e+02
  -6.9331673e+01   9.2132248e+01   9.4364478e+02
  -6.9322258e+01   9.2557747e+01   9.4350421e+02
  -6.9305069e+01   9.2972672e+01   9.4325781e+02
  -6.9293503e+01   9.3394989e+01   9.4308801e+02
  -6.9278038e+01   9.3811882e+01   9.4286517e+02
  -6.9273804e+01   9.4243874e+01   9.4279535e+02
  -6.9270584e+01   9.4677177e+01   9.4273920e+02
  -6.9270264e+01   9.5114441e+01   9.4272266e+02
  -6.9251465e+01   9.5526184e+01   9.4245453e+02
  -6.9254524e+01   9.5968033e+01   9.4248401e+02
  -6.9258377e+01   9.6411011e+01   9.4252441e+02
  -6.9260384e+01   9.6851448e+01   9.4253973e+02
  -6.9260429e+01   9.7289154e+01   9.4252826e+02
  -6.9267776e+01   9.7737190e+01   9.4261627e+02
  -6.9267578e+01   9.8174614e+01   9.4260156e+02
  -6.9277031e+01   9.8625786e+01   9.4271832e+02
  -6.9276779e+01   9.9063210e+01   9.4270306e+02
  -6.9265411e+01   9.9484650e+01   9.4253662e+02
  -6.9290070e+01   9.9957939e+01   9.4286035e+02
  -6.9347717e+01   1.0047936e+02   9.4363324e+02
  -6.9384422e+01   1.0097099e+02   9.4412073e+02
  -6.9401375e+01   1.0143429e+02   9.4433997e+02
  -6.9615593e+01   1.0218729e+02   9.4724310e+02
  -7.0835587e+01   1.0442574e+02   9.6383136e+02
  -7.0780495e+01   1.0479183e+02   9.6307007e+02
  -7.0663895e+01   1.0506581e+02   9.6147186e+02
  -7.0687836e+01   1.0554816e+02   9.6178601e+02
  -7.0687881e+01   1.0599493e+02   9.6177478e+02
  -7.0688751e+01   1.0644302e+02   9.6177521e+02
  -7.0690941e+01   1.0689309e+02   9.6179346e+02
  -7.0695732e+01   1.0734715e+02   9.6184717e+02
  -7.0738144e+01   1.0785860e+02   9.6241278e+02
  -7.0746117e+01   1.0831793e+02   9.6250983e+02
  -7.0727333e+01   1.0873618e+02   9.6224298e+02
  -7.0715729e+01   1.0916532e+02   9.6207379e+02
  -7.0758698e+01   1.0967886e+02   9.6264703e+02
  -7.0737732e+01   1.1009347e+02   9.6235046e+02
  -7.0749199e+01   1.1055846e+02   9.6249524e+02
  -7.0776421e+01   1.1104840e+02   9.6285449e+02
  -7.0762177e+01   1.1147334e+02   9.6264984e+02
  -7.0783829e+01   1.1195484e+02   9.6293311e+02
  -7.0722328e+01   1.1230460e+02   9.6208551e+02
  -7.0715942e+01   1.1274147e+02   9.6198773e+02
  -7.0717484e+01   1.1319091e+02   9.6199750e+02
  -7.0678268e+01   1.1357492e+02   9.6145331e+02
  -7.0608559e+01   1.1390923e+02   9.6049420e+02
  -7.0571716e+01   1.1429593e+02   9.5998242e+02
  -7.0592667e+01   1.1477612e+02   9.6025665e+02
  -7.0567757e+01   1.1518169e+02   9.5990710e+02
  -7.0529076e+01   1.1556444e+02   9.5937036e+02
  -7.0499168e+01   1.1596108e+02   9.5895282e+02
  -7.0473412e+01   1.1636422e+02   9.5859186e+02
  -7.0457092e+01   1.1678272e+02   9.5835956e+02
  -7.0441742e+01   1.1720262e+02   9.5814044e+02
  -7.0435692e+01   1.1763784e+02   9.5804755e+02
  -7.0450325e+01   1.1810767e+02   9.5823621e+02
  -7.0456131e+01   1.1856283e+02   9.5830481e+02
  -7.0424416e+01   1.1895473e+02   9.5786328e+02
  -7.0432236e+01   1.1941321e+02   9.5795929e+02
  -7.0433685e+01   1.1986096e+02   9.5796887e+02
  -7.0422806e+01   1.2028772e+02   9.5781085e+02
  -7.0423698e+01   1.2073450e+02   9.5781287e+02
  -7.0391724e+01   1.2112479e+02   9.5736810e+02
  -7.0380630e+01   1.2155068e+02   9.5720697e+02
  -7.0368111e+01   1.2197401e+02   9.5702692e+02
  -7.0359009e+01   1.2240311e+02   9.5689325e+02
  -7.0344353e+01   1.2282236e+02   9.5668384e+02
  -7.0336914e+01   1.2325413e+02   9.5657294e+02
  -7.0313377e+01   1.2365752e+02   9.5624304e+02
  -7.0295494e+01   1.2407056e+02   9.5599005e+02
  -7.0282555e+01   1.2449213e+02   9.5580432e+02
  -7.0257278e+01   1.2489163e+02   9.5545093e+02
  -7.0252342e+01   1.2532713e+02   9.5537427e+02
  -7.0239159e+01   1.2574777e+02   9.5518530e+02
  -7.0216751e+01   1.2615173e+02   9.5487128e+02
  -7.0210144e+01   1.2658382e+02   9.5477173e+02
  -7.0183197e+01   1.2697907e+02   9.5439587e+02
  -7.0148232e+01   1.2735947e+02   9.5391107e+02
  -7.0113960e+01   1.2774063e+02   9.5343561e+02
  -7.0086761e+01   1.2813434e+02   9.5305640e+02
  -7.0064194e+01   1.2853618e+02   9.5274030e+02
  -7.0035255e+01   1.2936900e+02   9.5232843e+02
  -7.0007103e+01   1.2975974e+02   9.5193634e+02
  -6.9983833e+01   1.3015924e+02   9.5161078e+02
  -6.9947350e+01   1.3053380e+02   9.5110553e+02
  -6.9920273e+01   1.3092552e+02   9.5072858e+02
  -6.9903053e+01   1.3133542e+02   9.5048535e+02
  -6.9901886e+01   1.3177536e+02   9.5046051e+02
  -6.9886757e+01   1.3218889e+02   9.5024597e+02
  -6.9863541e+01   1.3258693e+02   9.4992151e+02
  -6.9852669e+01   1.3300815e+02   9.4976483e+02
  -6.9835983e+01   1.3341814e+02   9.4952917e+02
  -6.9807655e+01   1.3380556e+02   9.4913519e+02
  -6.9794701e+01   1.3422227e+02   9.4895044e+02
  -6.9807610e+01   1.3468869e+02   9.4911719e+02
  -6.9778625e+01   1.3507417e+02   9.4871442e+02
  -6.9762962e+01   1.3548520e+02   9.4849298e+02
  -6.9742188e+01   1.3588606e+02   9.4820197e+02
  -6.9730133e+01   1.3630370e+02   9.4802948e+02
  -6.9716431e+01   1.3671797e+02   9.4783472e+02
  -6.9696289e+01   1.3711943e+02   9.4755249e+02
  -6.9691216e+01   1.3755035e+02   9.4747504e+02
  -6.9684402e+01   1.3797778e+02   9.4737402e+02
  -6.9674507e+01   1.3839903e+02   9.4723120e+02
  -6.9648262e+01   1.3878755e+02   9.4686603e+02
  -6.9643364e+01   1.3921844e+02   9.4679120e+02
  -6.9619911e+01   1.3961209e+02   9.4646417e+02
  -6.9608414e+01   1.4002943e+02   9.4629956e+02
  -6.9591553e+01   1.4043587e+02   9.4606213e+02
  -6.9594223e+01   1.4088162e+02   9.4609021e+02
  -6.9570694e+01   1.4127420e+02   9.4576233e+02
  -6.9558723e+01   1.4169005e+02   9.4559149e+02
  -6.9551712e+01   1.4211589e+02   9.4548810e+02
  -6.9562973e+01   1.4257910e+02   9.4563312e+02
  -6.9547478e+01   1.4298743e+02   9.4541443e+02
  -6.9538780e+01   1.4340962e+02   9.4528827e+02
  -6.9525543e+01   1.4382231e+02   9.4510040e+02
  -6.9525681e+01   1.4426257e+02   9.4509424e+02
  -6.9881012e+01   1.4676895e+02   9.4989301e+02
  -6.9890907e+01   1.4723210e+02   9.5001965e+02
  -6.9878677e+01   1.4764864e+02   9.4984564e+02
  -6.9852676e+01   1.4803578e+02   9.4948425e+02
  -6.9851799e+01   1.4847606e+02   9.4946454e+02
  -6.9853600e+01   1.4892201e+02   9.4948132e+02
  -6.9843925e+01   1.4934354e+02   9.4934222e+02
  -6.9819878e+01   1.4973409e+02   9.4900769e+02
  -6.9822060e+01   1.5018073e+02   9.4902960e+02
  -6.9828033e+01   1.5063557e+02   9.4910321e+02
  -6.9796745e+01   1.5100989e+02   9.4867010e+02
  -6.9793625e+01   1.5144498e+02   9.4862024e+02
  -6.9790619e+01   1.5188031e+02   9.4857184e+02
  -6.9862495e+01   1.5247891e+02   9.4954102e+02
  -6.9836525e+01   1.5286441e+02   9.4918054e+02
  -6.9796547e+01   1.5321877e+02   9.4862964e+02
  -6.9884262e+01   1.5385378e+02   9.4981433e+02
  -6.9887764e+01   1.5430394e+02   9.4985431e+02
  -6.9796371e+01   1.5454405e+02   9.4860474e+02
  -6.9811653e+01   1.5501990e+02   9.4880493e+02
  -6.9856476e+01   1.5556175e+02   9.4940668e+02
  -6.9839287e+01   1.5596562e+02   9.4916541e+02
  -6.9786873e+01   1.5629051e+02   9.4844580e+02
  -6.9799438e+01   1.5676059e+02   9.4860901e+02
  -6.9831978e+01   1.5727588e+02   9.4904395e+02
  -6.9800987e+01   1.5764809e+02   9.4861536e+02
  -6.9758224e+01   1.5799326e+02   9.4802679e+02
  -6.9796043e+01   1.5852087e+02   9.4853333e+02
  -6.9817268e+01   1.5901122e+02   9.4881445e+02
  -6.9790443e+01   1.5939204e+02   9.4844226e+02
  -6.9781593e+01   1.5981378e+02   9.4831476e+02
  -6.9843765e+01   1.6039851e+02   9.4915228e+02
  -6.9877686e+01   1.6091895e+02   9.4960590e+02
  -6.9783264e+01   1.6114346e+02   9.4831543e+02
  -6.9796906e+01   1.6161702e+02   9.4849341e+02
  -6.9913414e+01   1.6232962e+02   9.5006927e+02
  -6.9762794e+01   1.6242178e+02   9.4801514e+02
  -6.9437943e+01   1.6210524e+02   9.4359326e+02
  -6.7190628e+01   1.6792744e+02   9.1286700e+02
  -6.7213081e+01   1.6840958e+02   9.1316473e+02
  -6.7189171e+01   1.6877550e+02   9.1283234e+02
  -6.7167206e+01   1.6914609e+02   9.1252655e+02
  -6.7143936e+01   1.6951306e+02   9.1220276e+02
  -6.7128967e+01   1.6990080e+02   9.1199200e+02
  -6.7157005e+01   1.7039745e+02   9.1236517e+02
  -6.7179039e+01   1.7087924e+02   9.1265698e+02
  -6.7177216e+01   1.7130043e+02   9.1262445e+02
  -6.7146515e+01   1.7164783e+02   9.1219971e+02
  -6.7096703e+01   1.8556343e+02   9.1123920e+02
  -6.7090744e+01   1.8597275e+02   9.1114862e+02
  -6.7079918e+01   1.8636835e+02   9.1099164e+02
  -7.1056076e+01   9.6566429e+00   9.7625458e+02
  -7.1071297e+01   1.0110579e+01   9.7644568e+02
  -7.1063736e+01   1.0561312e+01   9.7632373e+02
  -7.0972313e+01   1.2352633e+01   9.7499628e+02
  -7.0943909e+01   1.2798735e+01   9.7458838e+02
  -7.0899826e+01   1.3241536e+01   9.7396503e+02
  -7.0907135e+01   1.3693694e+01   9.7404742e+02
  -7.0861801e+01   1.4135447e+01   9.7340710e+02
  -7.0835281e+01   1.4580493e+01   9.7302509e+02
  -7.0783455e+01   1.5019818e+01   9.7229529e+02
  -7.0773071e+01   1.5467543e+01   9.7213489e+02
  -7.0765907e+01   1.5915888e+01   9.7201904e+02
  -7.0682999e+01   1.6346588e+01   9.7086243e+02
  -7.0618858e+01   1.6780697e+01   9.6996399e+02
  -7.0625717e+01   1.7231306e+01   9.7004047e+02
  -7.0569878e+01   1.7666307e+01   9.6925616e+02
  -7.0485069e+01   1.8093166e+01   9.6807367e+02
  -7.0293327e+01   1.9831375e+01   9.6537030e+02
  -7.0267883e+01   2.0270876e+01   9.6500366e+02
  -7.0162720e+01   2.0686571e+01   9.6354205e+02
  -7.0132614e+01   2.1123520e+01   9.6311127e+02
  -7.0119476e+01   2.1565306e+01   9.6291345e+02
  -7.0082176e+01   2.1999336e+01   9.6238403e+02
  -7.0026581e+01   2.2427031e+01   9.6160327e+02
  -7.0015648e+01   2.2868603e+01   9.6143585e+02
  -7.0004814e+01   2.3310051e+01   9.6126996e+02
  -6.9965149e+01   2.3741581e+01   9.6070813e+02
  -6.9937057e+01   2.4176624e+01   9.6030524e+02
  -6.9927521e+01   2.4617826e+01   9.6015704e+02
  -6.9901848e+01   2.5053141e+01   9.5978754e+02
  -6.9889847e+01   2.5493093e+01   9.5960565e+02
  -6.9879623e+01   2.5933542e+01   9.5944812e+02
  -6.9846596e+01   2.6365257e+01   9.5897760e+02
  -6.9831924e+01   2.6803623e+01   9.5875909e+02
  -6.9818222e+01   2.7242159e+01   9.5855402e+02
  -6.9818962e+01   2.7686232e+01   9.5854700e+02
  -6.9792992e+01   2.8119562e+01   9.5817352e+02
  -6.9769348e+01   2.8553524e+01   9.5783215e+02
  -6.9735886e+01   2.8983095e+01   9.5735571e+02
  -6.9744316e+01   2.9429899e+01   9.5745459e+02
  -6.9704453e+01   2.9856148e+01   9.5689044e+02
  -6.9658493e+01   3.0279234e+01   9.5624255e+02
  -6.9668961e+01   3.0726616e+01   9.5636945e+02
  -6.9646652e+01   3.1159456e+01   9.5604633e+02
  -6.9600250e+01   3.1581085e+01   9.5539264e+02
  -6.9570351e+01   3.2009720e+01   9.5496545e+02
  -6.9566719e+01   3.2450218e+01   9.5489880e+02
  -6.9542389e+01   3.2880901e+01   9.5454816e+02
  -6.9488884e+01   3.3297283e+01   9.5379700e+02
  -6.9447166e+01   3.3718693e+01   9.5320776e+02
  -6.9451088e+01   3.4162033e+01   9.5324493e+02
  -6.9422142e+01   3.4589031e+01   9.5283105e+02
  -6.9382301e+01   3.5010181e+01   9.5226758e+02
  -6.9347321e+01   3.5433311e+01   9.5177087e+02
  -6.9327263e+01   3.5863712e+01   9.5147925e+02
  -6.9317337e+01   3.6299137e+01   9.5132629e+02
  -6.9283310e+01   3.6721695e+01   9.5084290e+02
  -6.9267662e+01   3.7153645e+01   9.5061176e+02
  -6.9242737e+01   3.7580376e+01   9.5025311e+02
  -6.9244698e+01   3.8021568e+01   9.5026361e+02
  -6.9218094e+01   3.8446896e+01   9.4988202e+02
  -6.9214455e+01   3.8884789e+01   9.4981580e+02
  -6.9210434e+01   3.9322426e+01   9.4974445e+02
  -6.9211212e+01   3.9762745e+01   9.4973871e+02
  -6.9218124e+01   4.0206657e+01   9.4981720e+02
  -6.9213257e+01   4.0643761e+01   9.4973419e+02
  -6.9215294e+01   4.1084866e+01   9.4974567e+02
  -6.9217766e+01   4.1526264e+01   9.4976343e+02
  -6.9227226e+01   4.1971935e+01   9.4987708e+02
  -6.9225006e+01   4.2410557e+01   9.4983032e+02
  -6.9206985e+01   4.2839378e+01   9.4956696e+02
  -6.9308273e+01   4.3342602e+01   9.5094043e+02
  -6.9265656e+01   4.3756184e+01   9.5033966e+02
  -6.9275795e+01   4.4202877e+01   9.5046252e+02
  -6.9299873e+01   4.4658695e+01   9.5077686e+02
  -6.9291313e+01   4.5093605e+01   9.5064343e+02
  -6.9347855e+01   4.5571110e+01   9.5140295e+02
  -6.9412674e+01   4.6054893e+01   9.5227612e+02
  -6.9461540e+01   4.6528797e+01   9.5293036e+02
  -6.9478844e+01   4.6981964e+01   9.5315186e+02
  -6.9461433e+01   4.7411667e+01   9.5289691e+02
  -6.9448860e+01   4.7844498e+01   9.5270850e+02
  -6.9416252e+01   4.8263199e+01   9.5224512e+02
  -6.9387207e+01   4.8684025e+01   9.5183093e+02
  -6.9374687e+01   4.9116169e+01   9.5164331e+02
  -6.9379364e+01   4.9560436e+01   9.5169165e+02
  -6.9374771e+01   4.9998070e+01   9.5161267e+02
  -6.9333115e+01   5.0849392e+01   9.5100989e+02
  -6.9308899e+01   5.1272106e+01   9.5066168e+02
  -6.9132805e+01   5.2899410e+01   9.4818372e+02
  -6.9085617e+01   5.3302391e+01   9.4752094e+02
  -6.9062790e+01   5.3723717e+01   9.4719238e+02
  -6.9045418e+01   5.4149036e+01   9.4693860e+02
  -6.9036339e+01   5.4580685e+01   9.4679865e+02
  -6.9019699e+01   5.5006210e+01   9.4655505e+02
  -6.8970863e+01   5.5405666e+01   9.4586987e+02
  -6.8930840e+01   5.5811615e+01   9.4530548e+02
  -6.8915291e+01   5.6237022e+01   9.4507697e+02
  -6.8903252e+01   5.6665131e+01   9.4489648e+02
  -6.8891777e+01   5.7093555e+01   9.4472388e+02
  -6.8888527e+01   5.7528702e+01   9.4466400e+02
  -6.8885826e+01   5.7964294e+01   9.4461169e+02
  -6.8869804e+01   5.8388531e+01   9.4437671e+02
  -6.8868912e+01   5.8825481e+01   9.4434937e+02
  -6.8856529e+01   5.9252560e+01   9.4416443e+02
  -6.8851677e+01   5.9685993e+01   9.4408289e+02
  -6.8854393e+01   6.0125957e+01   9.4410480e+02
  -6.8852348e+01   6.0561787e+01   9.4406177e+02
  -6.8845840e+01   6.0993645e+01   9.4395764e+02
  -6.8842552e+01   6.1428303e+01   9.4389746e+02
  -6.8822739e+01   6.1848034e+01   9.4361078e+02
  -6.8802361e+01   6.2267040e+01   9.4331641e+02
  -6.8709633e+01   6.2619835e+01   9.4203021e+02
  -6.8690010e+01   6.3038544e+01   9.4174646e+02
  -6.8683815e+01   6.3469406e+01   9.4164655e+02
  -6.8647110e+01   6.3871807e+01   9.4112860e+02
  -6.8637581e+01   6.4299210e+01   9.4098322e+02
  -6.8614891e+01   6.4714081e+01   9.4065747e+02
  -6.8876411e+01   6.5836304e+01   9.4421326e+02
  -6.8895126e+01   6.6292076e+01   9.4445490e+02
  -6.8902374e+01   6.6737015e+01   9.4453979e+02
  -6.8903130e+01   6.7175713e+01   9.4453552e+02
  -6.8993484e+01   6.7702332e+01   9.4575940e+02
  -6.9036507e+01   6.8183372e+01   9.4633472e+02
  -6.8977509e+01   6.8563545e+01   9.4551154e+02
  -6.8998634e+01   6.9023071e+01   9.4578625e+02
  -6.8962440e+01   6.9425247e+01   9.4527576e+02
  -6.8938461e+01   6.9839294e+01   9.4493268e+02
  -6.8928703e+01   7.0267540e+01   9.4478461e+02
  -6.8892120e+01   7.0668167e+01   9.4426874e+02
  -6.8850822e+01   7.1063438e+01   9.4368835e+02
  -6.8821899e+01   7.1471039e+01   9.4327771e+02
  -6.8806221e+01   7.1892105e+01   9.4304846e+02
  -6.8783012e+01   7.2305092e+01   9.4271613e+02
  -6.8778336e+01   7.2737366e+01   9.4263794e+02
  -6.8756012e+01   7.3150810e+01   9.4231787e+02
  -6.8735001e+01   7.3565361e+01   9.4201581e+02
  -6.8730293e+01   7.3997215e+01   9.4193719e+02
  -6.8715591e+01   7.4418190e+01   9.4172180e+02
  -6.8718246e+01   7.4857864e+01   9.4174408e+02
  -6.8724266e+01   7.5301292e+01   9.4181268e+02
  -6.8739090e+01   7.5754478e+01   9.4200195e+02
  -6.8738548e+01   7.6190857e+01   9.4198065e+02
  -6.8832901e+01   7.6732979e+01   9.4325977e+02
  -6.8901848e+01   7.7247849e+01   9.4419061e+02
  -6.8886841e+01   7.7668938e+01   9.4397131e+02
  -6.8915100e+01   7.8138863e+01   9.4434460e+02
  -6.8978882e+01   7.8649689e+01   9.4520483e+02
  -6.9033104e+01   7.9150360e+01   9.4593427e+02
  -6.9026321e+01   7.9581383e+01   9.4582751e+02
  -6.8999817e+01   7.9989471e+01   9.4545068e+02
  -6.9009155e+01   8.0438980e+01   9.4556500e+02
  -6.9003998e+01   8.0871651e+01   9.4548077e+02
  -6.9002655e+01   8.1308708e+01   9.4544879e+02
  -6.9018509e+01   8.1766182e+01   9.4565259e+02
  -6.9004204e+01   8.2187874e+01   9.4544305e+02
  -6.8995293e+01   8.2615921e+01   9.4530756e+02
  -6.8991325e+01   8.3049759e+01   9.4523987e+02
  -6.8993355e+01   8.3490799e+01   9.4525415e+02
  -6.8982254e+01   8.3915939e+01   9.4508887e+02
  -6.8983482e+01   8.4356003e+01   9.4509241e+02
  -6.8976677e+01   8.4786201e+01   9.4498602e+02
  -6.8977608e+01   8.5225876e+01   9.4498547e+02
  -6.8974045e+01   8.5659973e+01   9.4492365e+02
  -6.8969116e+01   8.6092323e+01   9.4484277e+02
  -6.8969208e+01   8.6530937e+01   9.4483112e+02
  -6.8958481e+01   8.6955894e+01   9.4467114e+02
  -6.8976677e+01   8.7417381e+01   9.4490735e+02
  -6.8970146e+01   8.7847588e+01   9.4480487e+02
  -6.8980797e+01   8.8299767e+01   9.4493793e+02
  -6.8971092e+01   8.8725845e+01   9.4479218e+02
  -6.8958229e+01   8.9147743e+01   9.4460315e+02
  -6.8948738e+01   8.9573837e+01   9.4446021e+02
  -6.8946297e+01   9.0009026e+01   9.4441400e+02
  -6.8938530e+01   9.0437210e+01   9.4429486e+02
  -6.8925392e+01   9.0858231e+01   9.4410223e+02
  -6.8913071e+01   9.1280136e+01   9.4392084e+02
  -6.8913307e+01   9.1718628e+01   9.4391162e+02
  -6.8904572e+01   9.2145111e+01   9.4377930e+02
  -6.8896194e+01   9.2571983e+01   9.4365216e+02
  -6.8891739e+01   9.3004051e+01   9.4357867e+02
  -6.8880440e+01   9.3426773e+01   9.4341144e+02
  -6.8879082e+01   9.3862907e+01   9.4338037e+02
  -6.8863495e+01   9.4279556e+01   9.4315466e+02
  -6.8856216e+01   9.4707390e+01   9.4304248e+02
  -6.8850960e+01   9.5137985e+01   9.4295831e+02
  -6.8832802e+01   9.5550568e+01   9.4269733e+02
  -6.8828224e+01   9.5981903e+01   9.4262256e+02
  -6.8834846e+01   9.6428848e+01   9.4270123e+02
  -6.8830894e+01   9.6861023e+01   9.4263495e+02
  -6.8839142e+01   9.7310379e+01   9.4273578e+02
  -6.8837143e+01   9.7745300e+01   9.4269659e+02
  -6.8846497e+01   9.8196365e+01   9.4281256e+02
  -6.8840019e+01   9.8624916e+01   9.4271210e+02
  -6.8835510e+01   9.9056198e+01   9.4263837e+02
  -6.8834389e+01   9.9492310e+01   9.4261115e+02
  -6.8859505e+01   9.9966522e+01   9.4294336e+02
  -6.8902031e+01   1.0046645e+02   9.4351398e+02
  -6.8945854e+01   1.0096880e+02   9.4410236e+02
  -6.8947731e+01   1.0141004e+02   9.4411627e+02
  -7.0372765e+01   1.0440113e+02   9.6360583e+02
  -7.0312286e+01   1.0475861e+02   9.6276605e+02
  -7.0295570e+01   1.0518073e+02   9.6252515e+02
  -7.0294647e+01   1.0562643e+02   9.6250085e+02
  -7.0291725e+01   1.0606909e+02   9.6244928e+02
  -7.0300743e+01   1.0652982e+02   9.6256122e+02
  -7.0276215e+01   1.0693960e+02   9.6221362e+02
  -7.0279259e+01   1.0739128e+02   9.6224402e+02
  -7.0322624e+01   1.0790477e+02   9.6282611e+02
  -7.0296341e+01   1.0831159e+02   9.6245490e+02
  -7.0288826e+01   1.0874705e+02   9.6234058e+02
  -7.0307419e+01   1.0922301e+02   9.6258386e+02
  -7.0307991e+01   1.0967111e+02   9.6258051e+02
  -7.0318863e+01   1.1013532e+02   9.6271783e+02
  -7.0350952e+01   1.1063307e+02   9.6314594e+02
  -7.0341835e+01   1.1106617e+02   9.6301013e+02
  -7.0352448e+01   1.1153043e+02   9.6314417e+02
  -7.0366714e+01   1.1200067e+02   9.6332849e+02
  -7.0257744e+01   1.1227412e+02   9.6182556e+02
  -7.0295181e+01   1.1278111e+02   9.6232721e+02
  -7.0271042e+01   1.1318939e+02   9.6198572e+02
  -7.0216530e+01   1.1354827e+02   9.6122852e+02
  -7.0199554e+01   1.1396737e+02   9.6098535e+02
  -7.0163605e+01   1.1435533e+02   9.6048236e+02
  -7.0163017e+01   1.1480071e+02   9.6046356e+02
  -7.0112648e+01   1.1516434e+02   9.5976337e+02
  -7.0089264e+01   1.1557184e+02   9.5943268e+02
  -7.0049843e+01   1.1595248e+02   9.5888239e+02
  -7.0039192e+01   1.1638039e+02   9.5872601e+02
  -7.0025856e+01   1.1680375e+02   9.5853296e+02
  -6.9995644e+01   1.1719868e+02   9.5810895e+02
  -7.0007294e+01   1.1766359e+02   9.5825818e+02
  -7.0027702e+01   1.1814339e+02   9.5852704e+02
  -7.0013969e+01   1.1856569e+02   9.5832861e+02
  -6.9990959e+01   1.1897202e+02   9.5800348e+02
  -7.0001381e+01   1.1943513e+02   9.5813586e+02
  -6.9988853e+01   1.1985905e+02   9.5795416e+02
  -6.9983078e+01   1.2029444e+02   9.5786499e+02
  -6.9977257e+01   1.2072971e+02   9.5777521e+02
  -6.9956985e+01   1.2113983e+02   9.5748767e+02
  -6.9955528e+01   1.2158244e+02   9.5745758e+02
  -6.9944969e+01   1.2200915e+02   9.5730328e+02
  -6.9924332e+01   1.2241810e+02   9.5701080e+02
  -6.9911308e+01   1.2284012e+02   9.5682257e+02
  -6.9896378e+01   1.2325869e+02   9.5660846e+02
  -6.9871796e+01   1.2365994e+02   9.5626215e+02
  -6.9870178e+01   1.2410170e+02   9.5623041e+02
  -6.9853500e+01   1.2451655e+02   9.5599225e+02
  -6.9834099e+01   1.2492641e+02   9.5571716e+02
  -6.9830765e+01   1.2536480e+02   9.5566174e+02
  -6.9799164e+01   1.2575224e+02   9.5521973e+02
  -6.9780563e+01   1.2616286e+02   9.5495575e+02
  -6.9754036e+01   1.2655880e+02   9.5458319e+02
  -6.9729385e+01   1.2695785e+02   9.5423645e+02
  -6.9685356e+01   1.2732117e+02   9.5362445e+02
  -6.9662613e+01   1.2772298e+02   9.5330377e+02
  -6.9630737e+01   1.2810767e+02   9.5285822e+02
  -6.9674927e+01   1.2863240e+02   9.5345361e+02
  -6.9640694e+01   1.2901245e+02   9.5297595e+02
  -6.9576965e+01   1.2933723e+02   9.5209460e+02
  -6.9546722e+01   1.2972368e+02   9.5167181e+02
  -6.9526299e+01   1.3012810e+02   9.5138318e+02
  -6.9511002e+01   1.3054193e+02   9.5116479e+02
  -6.9470306e+01   1.3090767e+02   9.5059888e+02
  -6.9465950e+01   1.3134161e+02   9.5053027e+02
  -6.9467232e+01   1.3178624e+02   9.5053888e+02
  -6.9437416e+01   1.3217168e+02   9.5012207e+02
  -6.9445000e+01   1.3262813e+02   9.5021674e+02
  -6.9410645e+01   1.3300439e+02   9.4973804e+02
  -6.9406670e+01   1.3343860e+02   9.4967474e+02
  -6.9385437e+01   1.3383948e+02   9.4937555e+02
  -6.9374939e+01   1.3426088e+02   9.4922314e+02
  -6.9371712e+01   1.3469623e+02   9.4917017e+02
  -6.9346085e+01   1.3508795e+02   9.4881097e+02
  -6.9322929e+01   1.3548418e+02   9.4848553e+02
  -6.9315292e+01   1.3591052e+02   9.4837256e+02
  -6.9301178e+01   1.3632405e+02   9.4817078e+02
  -6.9287094e+01   1.3673747e+02   9.4796960e+02
  -6.9273590e+01   1.3715190e+02   9.4777649e+02
  -6.9258743e+01   1.3756348e+02   9.4756506e+02
  -6.9248817e+01   1.3798462e+02   9.4742072e+02
  -6.9233292e+01   1.3839453e+02   9.4719995e+02
  -6.9216774e+01   1.3880225e+02   9.4696570e+02
  -6.9202660e+01   1.3921451e+02   9.4676404e+02
  -6.9190224e+01   1.3963008e+02   9.4658588e+02
  -6.9183426e+01   1.4005687e+02   9.4648456e+02
  -6.9171181e+01   1.4047256e+02   9.4630890e+02
  -6.9157799e+01   1.4088574e+02   9.4611761e+02
  -6.9141197e+01   1.4129222e+02   9.4588245e+02
  -6.9132027e+01   1.4171371e+02   9.4574890e+02
  -6.9134544e+01   1.4215915e+02   9.4577533e+02
  -6.9128426e+01   1.4258679e+02   9.4568359e+02
  -6.9124756e+01   1.4301939e+02   9.4562518e+02
  -6.9110016e+01   1.4342902e+02   9.4541565e+02
  -6.9109177e+01   1.4386740e+02   9.4539624e+02
  -6.9183830e+01   1.4446344e+02   9.4640955e+02
  -6.9395416e+01   1.4623122e+02   9.4928046e+02
  -6.9466713e+01   1.4682385e+02   9.5024762e+02
  -6.9452843e+01   1.4723691e+02   9.5005017e+02
  -6.9436798e+01   1.4764519e+02   9.4982294e+02
  -6.9432808e+01   1.4807895e+02   9.4976056e+02
  -6.9418114e+01   1.4848975e+02   9.4955157e+02
  -6.9450920e+01   1.4900235e+02   9.4999286e+02
  -6.9426926e+01   1.4939308e+02   9.4965680e+02
  -6.9422234e+01   1.4982524e+02   9.4958496e+02
  -6.9407883e+01   1.5023640e+02   9.4938092e+02
  -6.9397369e+01   1.5065572e+02   9.4922955e+02
  -6.9355431e+01   1.5100650e+02   9.4864813e+02
  -6.9361565e+01   1.5146173e+02   9.4872449e+02
  -6.9393005e+01   1.5197246e+02   9.4914697e+02
  -6.9444183e+01   1.5252701e+02   9.4983948e+02
  -6.9395363e+01   1.5286185e+02   9.4916400e+02
  -6.9384369e+01   1.5327971e+02   9.4900623e+02
  -6.9465546e+01   1.5390161e+02   9.5010895e+02
  -6.9428917e+01   1.5426285e+02   9.4960059e+02
  -6.9368416e+01   1.5457033e+02   9.4876538e+02
  -6.9387939e+01   1.5505598e+02   9.4902515e+02
  -6.9429588e+01   1.5559146e+02   9.4958734e+02
  -6.9425087e+01   1.5602373e+02   9.4951813e+02
  -6.9350227e+01   1.5629741e+02   9.4848700e+02
  -6.9380264e+01   1.5680722e+02   9.4889038e+02
  -6.9404671e+01   1.5730461e+02   9.4921655e+02
  -6.9368401e+01   1.5766446e+02   9.4871332e+02
  -6.9351715e+01   1.5806850e+02   9.4847760e+02
  -6.9379967e+01   1.5857503e+02   9.4885663e+02
  -6.9394974e+01   1.5905154e+02   9.4905438e+02
  -6.9384628e+01   1.5947003e+02   9.4890558e+02
  -6.9366493e+01   1.5987045e+02   9.4865021e+02
  -6.9423027e+01   1.6044318e+02   9.4941595e+02
  -6.9432274e+01   1.6090709e+02   9.4953522e+02
  -6.9372650e+01   1.6121107e+02   9.4871246e+02
  -6.9414825e+01   1.6175148e+02   9.4928168e+02
  -6.9486298e+01   1.6236095e+02   9.5025183e+02
  -6.9296349e+01   1.6235880e+02   9.4764691e+02
  -6.8973785e+01   1.6204268e+02   9.4322839e+02
  -6.6770744e+01   1.6793631e+02   9.1291473e+02
  -6.6776535e+01   1.6837682e+02   9.1298657e+02
  -6.6779762e+01   1.6881090e+02   9.1302313e+02
  -6.6771545e+01   1.6921603e+02   9.1290332e+02
  -6.6731064e+01   1.6953911e+02   9.1234241e+02
  -6.6717896e+01   1.6993124e+02   9.1215485e+02
  -6.6746483e+01   1.7085561e+02   9.1253040e+02
  -6.6739922e+01   1.7169035e+02   9.1242554e+02
  -6.6706146e+01   1.7202902e+02   9.1195587e+02
  -7.0589516e+01   9.6539173e+00   9.7604333e+02
  -7.0604576e+01   1.0107742e+01   9.7623370e+02
  -7.0559540e+01   1.1004255e+01   9.7557507e+02
  -7.0531502e+01   1.1451182e+01   9.7516943e+02
  -7.0522530e+01   1.1900957e+01   9.7502753e+02
  -7.0513550e+01   1.2350600e+01   9.7488531e+02
  -7.0490601e+01   1.2797620e+01   9.7455035e+02
  -7.0448357e+01   1.3240695e+01   9.7394843e+02
  -7.0443443e+01   1.3690478e+01   9.7386249e+02
  -7.0404205e+01   1.4133314e+01   9.7330237e+02
  -7.0379997e+01   1.4578765e+01   9.7294983e+02
  -7.0353043e+01   1.5023297e+01   9.7255939e+02
  -7.0312241e+01   1.5464438e+01   9.7197766e+02
  -7.0319191e+01   1.5915885e+01   9.7205585e+02
  -7.0249298e+01   1.6349495e+01   9.7107208e+02
  -7.0171974e+01   1.6780466e+01   9.6998566e+02
  -7.0174965e+01   1.7230154e+01   9.7000922e+02
  -7.0124023e+01   1.7666277e+01   9.6928766e+02
  -7.0042870e+01   1.8093945e+01   9.6814807e+02
  -6.9870903e+01   1.9390562e+01   9.6571869e+02
  -6.9831100e+01   1.9826273e+01   9.6515125e+02
  -6.9818344e+01   2.0269308e+01   9.6495734e+02
  -6.9740845e+01   2.0692993e+01   9.6386896e+02
  -6.9688934e+01   2.1123411e+01   9.6313397e+02
  -6.9672493e+01   2.1564165e+01   9.6288947e+02
  -6.9630287e+01   2.1996553e+01   9.6228864e+02
  -6.9606171e+01   2.2434244e+01   9.6193817e+02
  -6.9579292e+01   2.2870697e+01   9.6154938e+02
  -6.9551811e+01   2.3306623e+01   9.6115234e+02
  -6.9523163e+01   2.3741781e+01   9.6073926e+02
  -6.9511871e+01   2.4182587e+01   9.6056604e+02
  -6.9484688e+01   2.4617668e+01   9.6017316e+02
  -6.9465759e+01   2.5055336e+01   9.5989435e+02
  -6.9461739e+01   2.5498234e+01   9.5982178e+02
  -6.9426529e+01   2.5929462e+01   9.5931793e+02
  -6.9397354e+01   2.6362507e+01   9.5889783e+02
  -6.9392067e+01   2.6804407e+01   9.5880762e+02
  -6.9389534e+01   2.7247307e+01   9.5875549e+02
  -6.9367752e+01   2.7682497e+01   9.5843750e+02
  -6.9337593e+01   2.8114014e+01   9.5800385e+02
  -6.9311676e+01   2.8546902e+01   9.5762872e+02
  -6.9299873e+01   2.8985348e+01   9.5744867e+02
  -6.9292778e+01   2.9425608e+01   9.5733356e+02
  -6.9252274e+01   2.9851418e+01   9.5675702e+02
  -6.9229691e+01   3.0284542e+01   9.5642804e+02
  -6.9213799e+01   3.0720350e+01   9.5619171e+02
  -6.9194984e+01   3.1154608e+01   9.5591504e+02
  -6.9150055e+01   3.1576710e+01   9.5527722e+02
  -6.9116982e+01   3.2003746e+01   9.5480359e+02
  -6.9113319e+01   3.2444157e+01   9.5473627e+02
  -6.9085587e+01   3.2873039e+01   9.5433649e+02
  -6.9031067e+01   3.3288677e+01   9.5356659e+02
  -6.8993912e+01   3.3712101e+01   9.5303656e+02
  -6.8997787e+01   3.4155342e+01   9.5307336e+02
  -6.8964653e+01   3.4580082e+01   9.5259918e+02
  -6.8934616e+01   3.5005962e+01   9.5216754e+02
  -6.8890297e+01   3.5424126e+01   9.5153864e+02
  -6.8870346e+01   3.5854404e+01   9.5124658e+02
  -6.8861153e+01   3.6290085e+01   9.5110309e+02
  -6.8826614e+01   3.6712139e+01   9.5060950e+02
  -6.8811050e+01   3.7143967e+01   9.5037787e+02
  -6.8786247e+01   3.7570580e+01   9.5001892e+02
  -6.8788162e+01   3.8011639e+01   9.5002887e+02
  -6.8761681e+01   3.8436844e+01   9.4964685e+02
  -6.8765007e+01   3.8878536e+01   9.4967627e+02
  -6.8764046e+01   3.9317841e+01   9.4964661e+02
  -6.8760025e+01   3.9755375e+01   9.4957471e+02
  -6.8763298e+01   4.0197109e+01   9.4960364e+02
  -6.8760887e+01   4.0635513e+01   9.4955389e+02
  -6.8763611e+01   4.1076954e+01   9.4957520e+02
  -6.8765671e+01   4.1518044e+01   9.4958728e+02
  -6.8770996e+01   4.1961155e+01   9.4964459e+02
  -6.8773972e+01   4.2402851e+01   9.4966949e+02
  -6.8788940e+01   4.2852077e+01   9.4985986e+02
  -6.8903976e+01   4.3364468e+01   9.5143195e+02
  -6.8880043e+01   4.3789997e+01   9.5108545e+02
  -6.8870430e+01   4.4224415e+01   9.5093658e+02
  -6.8889999e+01   4.4677612e+01   9.5119049e+02
  -6.8871635e+01   4.5106216e+01   9.5092084e+02
  -6.8985176e+01   4.5621830e+01   9.5247247e+02
  -6.9025093e+01   4.6089760e+01   9.5300751e+02
  -6.9057510e+01   4.6553101e+01   9.5343884e+02
  -6.9078583e+01   4.7009144e+01   9.5371356e+02
  -6.9074318e+01   4.7448071e+01   9.5363879e+02
  -6.9057434e+01   4.7878193e+01   9.5338965e+02
  -6.9045570e+01   4.8311596e+01   9.5320959e+02
  -6.9038223e+01   4.8748028e+01   9.5309222e+02
  -6.9012611e+01   4.9171368e+01   9.5272272e+02
  -6.8997780e+01   4.9602150e+01   9.5250214e+02
  -6.8951187e+01   5.0009682e+01   9.5184296e+02
  -6.8937462e+01   5.0440659e+01   9.5163763e+02
  -6.8924484e+01   5.0872013e+01   9.5144257e+02
  -6.8902290e+01   5.1296371e+01   9.5112042e+02
  -6.8897224e+01   5.1733284e+01   9.5103467e+02
  -6.8871483e+01   5.2154461e+01   9.5066357e+02
  -6.8849060e+01   5.2577873e+01   9.5033844e+02
  -6.8666595e+01   5.4195374e+01   9.4775745e+02
  -6.8654091e+01   5.4624660e+01   9.4756927e+02
  -6.8639160e+01   5.5051804e+01   9.4734753e+02
  -6.8615036e+01   5.5471340e+01   9.4699927e+02
  -6.8569069e+01   5.5872761e+01   9.4634930e+02
  -6.8553772e+01   5.6298794e+01   9.4612262e+02
  -6.8552063e+01   5.6735878e+01   9.4608380e+02
  -6.8534569e+01   5.7159767e+01   9.4582697e+02
  -6.8535324e+01   5.7598763e+01   9.4582202e+02
  -6.8515068e+01   5.8020008e+01   9.4552722e+02
  -6.8494728e+01   5.8440910e+01   9.4523126e+02
  -6.8479645e+01   5.8866035e+01   9.4500775e+02
  -6.8463394e+01   5.9290001e+01   9.4476843e+02
  -6.8472404e+01   5.9735771e+01   9.4487750e+02
  -6.8465813e+01   6.0168003e+01   9.4477155e+02
  -6.8462929e+01   6.0603352e+01   9.4471643e+02
  -6.8462463e+01   6.1040874e+01   9.4469507e+02
  -6.8452072e+01   6.1469471e+01   9.4453662e+02
  -6.8430748e+01   6.1888008e+01   9.4422723e+02
  -6.8426857e+01   6.2322201e+01   9.4415863e+02
  -6.8382126e+01   6.2718857e+01   9.4352649e+02
  -6.8348930e+01   6.3125629e+01   9.4305365e+02
  -6.8300270e+01   6.3517574e+01   9.4236731e+02
  -6.8291885e+01   6.3946583e+01   9.4223663e+02
  -6.8293930e+01   6.4385353e+01   9.4225006e+02
  -6.8312378e+01   6.4839714e+01   9.4248987e+02
  -6.8334793e+01   6.5298103e+01   9.4278430e+02
  -6.8434219e+01   6.5830856e+01   9.4414136e+02
  -6.8448120e+01   6.6282074e+01   9.4431836e+02
  -6.8475975e+01   6.6747086e+01   9.4468793e+02
  -6.8482841e+01   6.7191849e+01   9.4476801e+02
  -6.8562103e+01   6.7708191e+01   9.4584674e+02
  -6.8633682e+01   6.8217918e+01   9.4681970e+02
  -6.8588432e+01   6.8611679e+01   9.4618079e+02
  -6.8568092e+01   6.9029922e+01   9.4588556e+02
  -6.8569756e+01   6.9470238e+01   9.4589392e+02
  -6.8513596e+01   6.9851616e+01   9.4510492e+02
  -6.8482124e+01   7.0257622e+01   9.4465619e+02
  -6.8465286e+01   7.0678291e+01   9.4440955e+02
  -6.8436127e+01   7.1085960e+01   9.4399292e+02
  -6.8388550e+01   7.1474045e+01   9.4332251e+02
  -6.8372238e+01   7.1894394e+01   9.4308319e+02
  -6.8348969e+01   7.2307152e+01   9.4274792e+02
  -6.8337051e+01   7.2731667e+01   9.4256927e+02
  -6.8321457e+01   7.3152153e+01   9.4234009e+02
  -6.8313057e+01   7.3580162e+01   9.4221008e+02
  -6.8311378e+01   7.4015343e+01   9.4217285e+02
  -6.8303299e+01   7.4443542e+01   9.4204736e+02
  -6.8297821e+01   7.4874527e+01   9.4195789e+02
  -6.8307640e+01   7.5322266e+01   9.4207922e+02
  -6.8331284e+01   7.5785461e+01   9.4239142e+02
  -6.8320786e+01   7.6210892e+01   9.4223260e+02
  -6.8379181e+01   7.6713486e+01   9.4302417e+02
  -6.8452248e+01   7.7233360e+01   9.4401776e+02
  -6.8484100e+01   7.7707405e+01   9.4444318e+02
  -6.8494698e+01   7.8157623e+01   9.4457562e+02
  -6.8543076e+01   7.8651367e+01   9.4522894e+02
  -6.8576294e+01   7.9128166e+01   9.4567316e+02
  -6.8651253e+01   7.9653862e+01   9.4669312e+02
  -6.8589600e+01   8.0021156e+01   9.4582922e+02
  -6.8598427e+01   8.0470322e+01   9.4593738e+02
  -6.8600082e+01   8.0911125e+01   9.4594647e+02
  -6.8601891e+01   8.1352180e+01   9.4595801e+02
  -6.8592789e+01   8.1780205e+01   9.4581879e+02
  -6.8586296e+01   8.2211258e+01   9.4571570e+02
  -6.8571228e+01   8.2631950e+01   9.4549463e+02
  -6.8570442e+01   8.3069679e+01   9.4547015e+02
  -6.8564728e+01   8.3501442e+01   9.4537817e+02
  -6.8553604e+01   8.3926491e+01   9.4521124e+02
  -6.8560532e+01   8.4373627e+01   9.4529352e+02
  -6.8541954e+01   8.4789322e+01   9.4502405e+02
  -6.8542801e+01   8.5228935e+01   9.4502277e+02
  -6.8547363e+01   8.5673164e+01   9.4507233e+02
  -6.8545647e+01   8.6109589e+01   9.4503552e+02
  -6.8550354e+01   8.6554108e+01   9.4508740e+02
  -6.8547363e+01   8.6988907e+01   9.4503290e+02
  -6.8556488e+01   8.7439133e+01   9.4514569e+02
  -6.8549461e+01   8.7868797e+01   9.4503577e+02
  -6.8558739e+01   8.8319344e+01   9.4515070e+02
  -6.8551048e+01   8.8748047e+01   9.4503180e+02
  -6.8537766e+01   8.9169403e+01   9.4483588e+02
  -6.8527496e+01   8.9594559e+01   9.4468146e+02
  -6.8510178e+01   9.0010292e+01   9.4443005e+02
  -6.8498016e+01   9.0432594e+01   9.4424945e+02
  -6.8487221e+01   9.0856552e+01   9.4408795e+02
  -6.8494797e+01   9.1304924e+01   9.4417975e+02
  -6.8483643e+01   9.1728249e+01   9.4401324e+02
  -6.8470474e+01   9.2148750e+01   9.4381921e+02
  -6.8459351e+01   9.2571838e+01   9.4365332e+02
  -6.8461639e+01   9.3013031e+01   9.4367242e+02
  -6.8460136e+01   9.3449074e+01   9.4363916e+02
  -6.8461075e+01   9.3888466e+01   9.4363977e+02
  -6.8455292e+01   9.4318596e+01   9.4354767e+02
  -6.8443672e+01   9.4740578e+01   9.4337524e+02
  -6.8435295e+01   9.5166885e+01   9.4324731e+02
  -6.8426170e+01   9.5592102e+01   9.4310956e+02
  -6.8415749e+01   9.6015350e+01   9.4295343e+02
  -6.8410172e+01   9.6445328e+01   9.4286462e+02
  -6.8406044e+01   9.6877296e+01   9.4279559e+02
  -6.8406776e+01   9.7316116e+01   9.4279352e+02
  -6.8411842e+01   9.7761147e+01   9.4285144e+02
  -6.8423241e+01   9.8215317e+01   9.4299652e+02
  -6.8431465e+01   9.8665054e+01   9.4309784e+02
  -6.8439613e+01   9.9114822e+01   9.4319824e+02
  -6.8437050e+01   9.9549103e+01   9.4315106e+02
  -6.8464828e+01   1.0002769e+02   9.4352191e+02
  -6.8507225e+01   1.0052811e+02   9.4409467e+02
  -6.8520630e+01   1.0098628e+02   9.4426752e+02
  -6.8584915e+01   1.0151999e+02   9.4514160e+02
  -6.9971428e+01   1.0402015e+02   9.6423676e+02
  -6.9929451e+01   1.0440533e+02   9.6364642e+02
  -6.9852135e+01   1.0473698e+02   9.6256909e+02
  -6.9885368e+01   1.0523411e+02   9.6301544e+02
  -6.9862114e+01   1.0564623e+02   9.6268311e+02
  -6.9846725e+01   1.0607002e+02   9.6245947e+02
  -6.9849785e+01   1.0652177e+02   9.6248993e+02
  -6.9844749e+01   1.0696115e+02   9.6240894e+02
  -6.9859512e+01   1.0743090e+02   9.6260083e+02
  -6.9881737e+01   1.0791240e+02   9.6289563e+02
  -6.9871895e+01   1.0834442e+02   9.6274841e+02
  -6.9878395e+01   1.0880181e+02   9.6282660e+02
  -6.9887878e+01   1.0926395e+02   9.6294604e+02
  -6.9884094e+01   1.0970540e+02   9.6288263e+02
  -6.9917671e+01   1.1020564e+02   9.6333380e+02
  -6.9915977e+01   1.1065054e+02   9.6329919e+02
  -6.9881111e+01   1.1104269e+02   9.6280774e+02
  -6.9932632e+01   1.1157222e+02   9.6350629e+02
  -6.9898178e+01   1.1196471e+02   9.6302045e+02
  -6.9822807e+01   1.1229098e+02   9.6197119e+02
  -6.9877548e+01   1.1282637e+02   9.6271429e+02
  -6.9829620e+01   1.1319601e+02   9.6204303e+02
  -6.9759018e+01   1.1352813e+02   9.6105927e+02
  -6.9744102e+01   1.1395036e+02   9.6084308e+02
  -6.9710869e+01   1.1434237e+02   9.6037433e+02
  -6.9706413e+01   1.1478129e+02   9.6030206e+02
  -6.9668465e+01   1.1516486e+02   9.5976862e+02
  -6.9631546e+01   1.1554964e+02   9.5924933e+02
  -6.9620316e+01   1.1597672e+02   9.5908386e+02
  -6.9600090e+01   1.1638863e+02   9.5879474e+02
  -6.9584801e+01   1.1680860e+02   9.5857355e+02
  -6.9575516e+01   1.1723850e+02   9.5843536e+02
  -6.9591270e+01   1.1771062e+02   9.5864178e+02
  -6.9597427e+01   1.1816666e+02   9.5871631e+02
  -6.9584618e+01   1.1859045e+02   9.5852936e+02
  -6.9553741e+01   1.1898322e+02   9.5809399e+02
  -6.9567429e+01   1.1945206e+02   9.5827222e+02
  -6.9555542e+01   1.1987701e+02   9.5809814e+02
  -6.9536903e+01   1.2029014e+02   9.5783124e+02
  -6.9528229e+01   1.2072034e+02   9.5770148e+02
  -6.9528496e+01   1.2116604e+02   9.5769525e+02
  -6.9509163e+01   1.2157743e+02   9.5741888e+02
  -6.9506203e+01   1.2201736e+02   9.5736810e+02
  -6.9484451e+01   1.2242413e+02   9.5705841e+02
  -6.9473686e+01   1.2285004e+02   9.5690015e+02
  -6.9467979e+01   1.2328483e+02   9.5681189e+02
  -6.9448242e+01   1.2369453e+02   9.5653003e+02
  -6.9442154e+01   1.2412841e+02   9.5643658e+02
  -6.9427971e+01   1.2454769e+02   9.5623151e+02
  -6.9402168e+01   1.2494585e+02   9.5586633e+02
  -6.9363762e+01   1.2532093e+02   9.5532764e+02
  -6.9336853e+01   1.2571642e+02   9.5494757e+02
  -6.9313560e+01   1.2611808e+02   9.5461700e+02
  -6.9298569e+01   1.2653461e+02   9.5440100e+02
  -6.9270058e+01   1.2692622e+02   9.5399902e+02
  -6.9227829e+01   1.2729223e+02   9.5340790e+02
  -6.9247917e+01   1.2777271e+02   9.5367523e+02
  -6.9219307e+01   1.2816328e+02   9.5327197e+02
  -6.9209976e+01   1.2858926e+02   9.5313409e+02
  -6.9175125e+01   1.2896762e+02   9.5264496e+02
  -6.9123451e+01   1.2931406e+02   9.5192407e+02
  -6.9106789e+01   1.2972554e+02   9.5168549e+02
  -6.9080467e+01   1.3011864e+02   9.5131390e+02
  -6.9071350e+01   1.3054391e+02   9.5117914e+02
  -6.9050621e+01   1.3094707e+02   9.5088477e+02
  -6.9042320e+01   1.3137360e+02   9.5076141e+02
  -6.9020462e+01   1.3177414e+02   9.5045142e+02
  -6.9018219e+01   1.3221199e+02   9.5041162e+02
  -6.9010849e+01   1.3263997e+02   9.5030127e+02
  -6.8980423e+01   1.3302339e+02   9.4987347e+02
  -6.8975960e+01   1.3345665e+02   9.4980310e+02
  -6.8972984e+01   1.3389278e+02   9.4975336e+02
  -6.8949081e+01   1.3428812e+02   9.4941559e+02
  -6.8939240e+01   1.3471059e+02   9.4927118e+02
  -6.8909790e+01   1.3509457e+02   9.4885724e+02
  -6.8901024e+01   1.3551881e+02   9.4872791e+02
  -6.8881897e+01   1.3592252e+02   9.4845587e+02
  -6.8865273e+01   1.3633095e+02   9.4821838e+02
  -6.8851517e+01   1.3674484e+02   9.4802051e+02
  -6.8835075e+01   1.3715326e+02   9.4778571e+02
  -6.8823433e+01   1.3757104e+02   9.4761694e+02
  -6.8816414e+01   1.3799797e+02   9.4751196e+02
  -6.8798393e+01   1.3840266e+02   9.4725543e+02
  -6.8784012e+01   1.3881447e+02   9.4704901e+02
  -6.8778618e+01   1.3924435e+02   9.4696667e+02
  -6.8757072e+01   1.3964133e+02   9.4666168e+02
  -6.8745346e+01   1.4005803e+02   9.4649207e+02
  -6.8732536e+01   1.4047240e+02   9.4630737e+02
  -6.8724930e+01   1.4089728e+02   9.4619458e+02
  -6.8709679e+01   1.4130634e+02   9.4597638e+02
  -6.8697632e+01   1.4172180e+02   9.4580249e+02
  -6.8702675e+01   1.4217249e+02   9.4586371e+02
  -6.8699440e+01   1.4260609e+02   9.4581128e+02
  -6.8700645e+01   1.4304892e+02   9.4581995e+02
  -6.8689270e+01   1.4346547e+02   9.4565533e+02
  -6.8693420e+01   1.4391440e+02   9.4570453e+02
  -6.8920288e+01   1.4571494e+02   9.4880402e+02
  -6.9031929e+01   1.4639342e+02   9.5033289e+02
  -6.9049675e+01   1.4687366e+02   9.5056934e+02
  -6.9022675e+01   1.4725867e+02   9.5018982e+02
  -6.9004112e+01   1.4766141e+02   9.4992664e+02
  -6.8987274e+01   1.4806761e+02   9.4968707e+02
  -6.9020226e+01   1.4858076e+02   9.5013293e+02
  -6.9093796e+01   1.4918205e+02   9.5113794e+02
  -6.9022972e+01   1.4947160e+02   9.5015515e+02
  -6.9008095e+01   1.4988179e+02   9.4994275e+02
  -6.8986389e+01   1.5027692e+02   9.4963623e+02
  -6.8968094e+01   1.5067923e+02   9.4937683e+02
  -6.8937607e+01   1.5105460e+02   9.4894965e+02
  -6.8950951e+01   1.5152588e+02   9.4912561e+02
  -6.8996147e+01   1.5206758e+02   9.4974017e+02
  -6.8991997e+01   1.5250076e+02   9.4967554e+02
  -6.8957336e+01   1.5286626e+02   9.4919073e+02
  -6.9011093e+01   1.5342789e+02   9.4992310e+02
  -6.9018242e+01   1.5388634e+02   9.5001398e+02
  -6.8981567e+01   1.5424689e+02   9.4950183e+02
  -6.8956711e+01   1.5463348e+02   9.4915216e+02
