# .PCD v0.7 - Point Cloud Data file format
VERSION 0.7
FIELDS x y z
SIZE 4 4 4
TYPE F F F
COUNT 1 1 1
WIDTH 1368
HEIGHT 1
VIEWPOINT 0 0 0 1 0 0 0
POINTS 1368
DATA ascii
0.024518084 0.073668294 -1.1167893
0.035470169 0.072400242 -1.1153611
0.04553578 0.073099367 -1.1167524
0.055985857 0.073528372 -1.1176605
0.064993538 0.072694518 -1.1167923
0.074667081 0.072965518 -1.1177961
0.084772922 0.072802491 -1.1181169
0.094828166 0.070882753 -1.1164073
0.10402922 0.07186079 -1.1174303
0.1162481 0.072231337 -1.1177202
0.12451433 0.071261413 -1.116897
0.13478263 0.071527652 -1.1174312
0.14616352 0.072446384 -1.1182312
0.1551104 0.071352392 -1.1167223
0.16490592 0.071329646 -1.1168225
0.17479061 0.071618222 -1.1173432
0.18484685 0.072086304 -1.1178325
0.19463296 0.070632964 -1.1164336
0.20466571 0.071359545 -1.1173053
0.21610114 0.071734823 -1.1180029
0.22540563 0.071880542 -1.1180463
0.23482803 0.072179675 -1.1184679
0.24421322 0.071039416 -1.11764
0.25452167 0.070034072 -1.1165918
0.26499927 0.070936047 -1.1185414
0.27543893 0.070315793 -1.1181004
0.28521428 0.071078636 -1.1197977
0.29498303 0.069751061 -1.1186889
0.30562493 0.0696413 -1.1185156
0.31397811 0.069224812 -1.1186725
0.32503447 0.069576897 -1.1189268
0.33575678 0.069701038 -1.1193681
0.34515479 0.069368914 -1.1196203
0.35483816 0.068999395 -1.1193182
0.36459258 0.06866584 -1.11853
0.37447196 0.069103278 -1.119471
0.38469225 0.069354191 -1.1194106
0.39493546 0.068581887 -1.118583
0.40523544 0.069886193 -1.1195025
0.4149448 0.06995932 -1.1197951
0.42488822 0.069823705 -1.1194304
0.4354316 0.069121264 -1.1197249
0.4440439 0.069486998 -1.1211708
0.45124736 0.067931473 -1.1210152
-0.72186607 0.079897448 -1.1206031
-0.71768594 0.079608247 -1.1198297
-0.70013678 0.0802854 -1.1198643
-0.69548082 0.079476818 -1.1183908
-0.68401265 0.080509365 -1.1201576
-0.67461228 0.080379799 -1.1200205
-0.66363567 0.079846837 -1.1191212
-0.65505856 0.08019115 -1.1198162
-0.62516069 0.080419548 -1.120307
-0.60502851 0.07907144 -1.1179763
-0.57700652 0.07977102 -1.1195152
-0.56457514 0.079922944 -1.1198491
-0.4862577 0.079879388 -1.1202911
-0.45376506 0.079582103 -1.119941
-0.71466416 -0.09108489 -1.111388
-0.70718199 -0.090445787 -1.1126183
-0.69661051 -0.086849727 -1.1147591
-0.69468373 -0.088556081 -1.1168133
-0.72180384 -0.084553517 -1.1087563
-0.71517378 -0.083302006 -1.108053
-0.70662421 -0.082806125 -1.1095455
-0.69877076 -0.081271522 -1.1121172
-0.6918593 -0.079288371 -1.1138573
-0.68707752 -0.077969097 -1.1162962
-0.72306722 -0.075799398 -1.1051695
-0.71682984 -0.075242966 -1.1037678
-0.70678258 -0.075769871 -1.1060374
-0.69865072 -0.074037276 -1.1083611
-0.68963736 -0.07195203 -1.1117748
-0.68628711 -0.070125811 -1.11297
-0.72741514 -0.067478411 -1.102146
-0.68466556 -0.060318366 -1.1100024
-0.6847626 -0.06198987 -1.1104255
-0.67371291 -0.056021985 -1.1156142
-0.67215216 -0.05404444 -1.1152889
-0.6825847 -0.053310957 -1.1066552
-0.68183976 -0.054070402 -1.1074972
-0.67222953 -0.052489113 -1.1146295
-0.67093259 -0.05182692 -1.1153548
-0.73516226 -0.046559528 -1.099959
-0.67918772 -0.045731191 -1.1035584
-0.67882675 -0.046211038 -1.1036413
-0.67867684 -0.040357944 -1.0996596
-0.67567182 -0.039318901 -1.099708
-0.67356521 -0.035820723 -1.0984118
-0.65222102 -0.031689785 -1.1026416
-0.64212382 -0.030120093 -1.0998625
-0.53200006 -0.025816116 -1.0937001
-0.51122266 -0.026872031 -1.0957603
-0.50697064 -0.026535379 -1.0956801
-0.49734965 -0.026067037 -1.0961523
-0.48850983 -0.026083831 -1.0974758
-0.47562903 -0.02368053 -1.0967367
-0.45978048 -0.024796793 -1.0981606
-0.45599309 -0.0241511 -1.0978135
-0.44393596 -0.023789123 -1.0989722
-0.43233389 -0.023667386 -1.0996262
-0.42560196 -0.0219684 -1.0995145
-0.41712639 -0.022074552 -1.1009144
-0.40576199 -0.021512715 -1.1015904
-0.39466736 -0.022471404 -1.1029047
-0.38521585 -0.020866612 -1.102739
-0.3754355 -0.021670498 -1.103755
-0.36653703 -0.020469267 -1.1040403
-0.35414365 -0.020263003 -1.1052418
-0.34694883 -0.02190477 -1.106246
-0.49004459 -0.022369426 -1.0951838
-0.48770252 -0.021774782 -1.0954251
-0.4637374 -0.020629922 -1.0958681
-0.45586926 -0.020222848 -1.0960586
-0.44714385 -0.018798251 -1.096224
-0.43488345 -0.019884111 -1.0976801
-0.42341366 -0.018571109 -1.0984637
-0.41426679 -0.018168217 -1.0992192
-0.40660825 -0.018158138 -1.1002924
-0.39441445 -0.017726941 -1.1005635
-0.38382933 -0.016928243 -1.100957
-0.37568897 -0.017015941 -1.10151
-0.36430565 -0.016971324 -1.1026016
-0.35495406 -0.015492377 -1.1028092
-0.34502527 -0.015891602 -1.1033064
-0.3349075 -0.015829498 -1.1040164
-0.32508093 -0.015172335 -1.1039804
-0.31521714 -0.015883042 -1.1042713
-0.30484885 -0.015429288 -1.1048793
-0.29470342 -0.014798297 -1.1050999
-0.285429 -0.014467302 -1.1059849
-0.27508318 -0.014057053 -1.1065997
-0.26522955 -0.013975073 -1.1072342
-0.25501597 -0.013128338 -1.1070069
-0.24466147 -0.013040365 -1.1080974
-0.23671423 -0.012924593 -1.1082174
-0.22457898 -0.013252531 -1.1084441
-0.21422523 -0.011903916 -1.1093287
-0.20661741 -0.012645697 -1.1107997
-0.19704308 -0.010838503 -1.1103797
-0.18476751 -0.012166775 -1.1116253
-0.1798043 -0.011302487 -1.1118102
-0.16496277 -0.010445313 -1.1125178
-0.15224572 -0.008471515 -1.1130313
-0.1463874 -0.010258372 -1.1141387
-0.11770722 -0.010088 -1.1161816
-0.10112517 -0.0073065744 -1.1150001
-0.057222523 -0.0061572562 -1.1173078
-0.43970054 -0.010889005 -1.0932764
-0.39196354 -0.011370671 -1.0976459
-0.38837251 -0.010466182 -1.0975652
-0.37620842 -0.010614044 -1.0982329
-0.36283717 -0.0078628594 -1.0979725
-0.35398725 -0.0086687822 -1.0992275
-0.34289563 -0.0086255334 -1.0997456
-0.33690375 -0.0083872462 -1.1000652
-0.32465169 -0.0067092557 -1.0997142
-0.31376159 -0.0076107737 -1.1005238
-0.30466235 -0.0068112281 -1.1006246
-0.29441911 -0.0066118054 -1.1012318
-0.28479716 -0.0067110909 -1.1022077
-0.27494708 -0.0069883098 -1.1031979
-0.26509225 -0.0055784793 -1.1028312
-0.25530165 -0.0057656658 -1.1035035
-0.24536526 -0.0050383275 -1.104058
-0.23493989 -0.005279521 -1.1045419
-0.22492173 -0.0051987064 -1.1048433
-0.21443461 -0.0050960234 -1.1062492
-0.20515341 -0.0046706023 -1.1068544
-0.19531885 -0.0048598764 -1.1075708
-0.1859685 -0.0034845241 -1.1073896
-0.17648867 -0.0037378415 -1.1085118
-0.1652265 -0.0040259156 -1.1094142
-0.1558921 -0.0016409734 -1.1094044
-0.14513832 -0.001406091 -1.1096352
-0.1362011 -0.0018586417 -1.110134
-0.12417422 -0.0015135414 -1.1112546
-0.11687449 -0.0023405415 -1.1120284
-0.10235175 -0.0059145405 -1.1145713
-0.093901418 -0.0016404894 -1.1128974
0.14480497 0.0020667713 -1.1269848
-0.34461948 -0.00198821 -1.0958381
-0.32251459 -0.0019203944 -1.097168
-0.31613338 0.0016491597 -1.0952139
-0.2942341 0.0016264288 -1.0964265
-0.28661948 0.0016398854 -1.097096
-0.27471927 0.0013672285 -1.0981144
-0.2647078 -0.0002662921 -1.09982
-0.25338322 0.00244044 -1.0987983
-0.24562851 0.0020546247 -1.099718
-0.23420617 0.001936293 -1.100065
-0.22461024 0.0027776151 -1.1003432
-0.21492656 0.0022645057 -1.1016457
-0.20512511 0.0031946858 -1.1016694
-0.19542296 0.0036554313 -1.102336
-0.18529016 0.0038392262 -1.1024327
-0.17531882 0.0037329383 -1.1040558
-0.16502313 0.0043153181 -1.1043752
-0.15525639 0.0043965089 -1.1054145
-0.14491674 0.0041043861 -1.1060202
-0.13590167 0.0049969801 -1.1059217
-0.12425386 0.0053987289 -1.1064038
-0.11455913 0.0050362879 -1.107325
-0.10563379 0.0056802789 -1.107478
-0.093371913 0.0063644256 -1.1078814
-0.084755264 0.0074452152 -1.1075981
-0.074809641 0.0064823944 -1.1089364
-0.063991994 0.007983977 -1.1087452
-0.058033869 0.0084989201 -1.1091143
-0.044472821 0.0084122205 -1.1103957
-0.037276797 0.0087761488 -1.1105953
-0.026967023 0.0095293894 -1.1105409
-0.018483616 0.0084751211 -1.1119454
-0.0090285512 0.010153144 -1.1115165
-0.24333392 0.0067498838 -1.0954355
-0.22342055 0.0076358472 -1.0961937
-0.21892241 0.0081673488 -1.0959898
-0.20339505 0.010165096 -1.0963874
-0.19530083 0.0077154064 -1.0978268
-0.18438864 0.0098442128 -1.0973951
-0.1756514 0.010015399 -1.0982865
-0.16402265 0.010741082 -1.0993998
-0.15449254 0.011884334 -1.0993164
-0.14470367 0.010816502 -1.1005613
-0.13455577 0.012480387 -1.0999658
-0.1245039 0.012140725 -1.1010363
-0.11458936 0.013058339 -1.1013801
-0.10427638 0.012739702 -1.1022208
-0.094369404 0.013158601 -1.1024662
-0.084313892 0.012888826 -1.1031812
-0.074038818 0.013247873 -1.103846
-0.064376041 0.013852344 -1.1037003
-0.055117097 0.014012699 -1.1051449
-0.045680467 0.014056877 -1.1053196
-0.03480893 0.014432054 -1.1056162
-0.025710626 0.014424536 -1.1063473
-0.015267896 0.016134199 -1.1064658
-0.005592458 0.014665763 -1.1074641
0.005633329 0.016434412 -1.1065725
0.015832981 0.015384929 -1.1078588
0.02390809 0.017004183 -1.1079134
0.035322931 0.016938575 -1.1078326
0.044758812 0.017902341 -1.1078997
0.052739702 0.018096395 -1.1081232
0.067843884 0.018079307 -1.109198
0.070080072 0.017289991 -1.1100607
0.10662389 0.020366266 -1.109992
-0.19213302 0.019200003 -1.0927632
-0.18021809 0.017933043 -1.0940871
-0.17802508 0.017501483 -1.094254
-0.16030724 0.018860217 -1.0959265
-0.15517403 0.018019615 -1.0962026
-0.13291867 0.019436611 -1.0968616
-0.12353367 0.01862414 -1.0971782
-0.11418831 0.021498052 -1.0970088
-0.10309378 0.020639602 -1.0980362
-0.094489276 0.021188509 -1.0986992
-0.083481796 0.021147383 -1.0989975
-0.074085362 0.022116126 -1.0989554
-0.064031243 0.02188018 -1.1005356
-0.053901881 0.022303626 -1.1005853
-0.044752903 0.021979405 -1.1009642
-0.035235178 0.022633003 -1.1012024
-0.02557927 0.023403188 -1.1013328
-0.015358044 0.023144338 -1.1020671
-0.005231888 0.023051079 -1.1025014
0.0055111726 0.022895401 -1.1029426
0.01536743 0.023194022 -1.1031611
0.025195213 0.023220116 -1.1037971
0.035222784 0.022993665 -1.1042495
0.044704571 0.0239562 -1.1047457
0.054167189 0.023813576 -1.1048924
0.066172197 0.02454452 -1.105337
0.074115984 0.024924535 -1.1058136
0.084452368 0.025505386 -1.1060313
0.096522652 0.025324875 -1.1071811
0.10415412 0.024980148 -1.1079566
0.11327399 0.02629574 -1.1074427
0.12499306 0.0269986 -1.1075276
0.13535541 0.027775496 -1.1077254
0.14340043 0.026662206 -1.1089123
-0.073015645 0.028060861 -1.0967073
-0.067551315 0.028912164 -1.0968256
-0.043202687 0.028964749 -1.0981823
-0.03789996 0.028541313 -1.0984422
-0.023770295 0.029946005 -1.0986242
-0.01493833 0.029825551 -1.0984792
-0.0049633682 0.02965131 -1.0995996
0.0035533803 0.029007161 -1.0997738
0.016130829 0.029321518 -1.1008304
0.025656996 0.029308766 -1.100729
0.035802346 0.029163809 -1.1014252
0.045087241 0.030541444 -1.1010107
0.055072211 0.030664176 -1.1017981
0.065788068 0.03026446 -1.1026404
0.074608162 0.030708997 -1.1032822
0.085462473 0.031133935 -1.1037534
0.0952923 0.031498149 -1.1040709
0.10555961 0.031648099 -1.1046875
0.11531942 0.0316067 -1.1052192
0.12565024 0.031917371 -1.1053503
0.13546066 0.032172885 -1.1052257
0.144604 0.033363223 -1.1053804
0.15501188 0.033226795 -1.1059033
0.16420871 0.033458538 -1.1065344
0.17738949 0.035387643 -1.106456
0.18610235 0.036103748 -1.1071721
0.19714934 0.036851168 -1.1072907
0.20565404 0.03574599 -1.1083577
0.22456719 0.040607255 -1.1059579
0.23215748 0.038496494 -1.1078318
0.2438843 0.038209066 -1.1089535
0.25358039 0.038834598 -1.1095611
0.26425332 0.043343153 -1.1064612
0.2756671 0.042932626 -1.1072242
0.2823903 0.042990394 -1.1073508
0.40970811 0.040455602 -1.112777
0.41656989 0.039932046 -1.1123086
0.42438024 0.039465826 -1.1129503
0.43227413 0.040968377 -1.1135819
0.29437149 0.041809499 -1.108698
0.30477884 0.040924501 -1.1105381
0.3139956 0.04563516 -1.1076429
0.32434309 0.044362519 -1.1093498
0.33329755 0.043386031 -1.1114501
0.34801051 0.047549158 -1.1083539
0.35494587 0.04688371 -1.1098162
0.36596921 0.045706049 -1.1116586
0.37628469 0.045127932 -1.1119823
0.40770224 0.043001726 -1.1115727
0.41490731 0.042768903 -1.1110557
0.42508072 0.043363325 -1.1117566
0.43424761 0.044273969 -1.1119919
0.4402017 0.043690816 -1.1139176
0.44681439 0.050634895 -1.1140108
0.44945374 0.052134238 -1.1165692
0.45078376 0.056571018 -1.115461
0.45549232 0.053895649 -1.1206146
-0.74891913 0.067912795 -1.104072
-0.73721892 0.068610743 -1.102383
-0.71370333 0.069563679 -1.1012857
-0.70017195 0.06986694 -1.1012278
-0.69419914 0.070347093 -1.1018054
-0.68148911 0.069920234 -1.1009908
-0.67624891 0.069902033 -1.1010319
-0.66646993 0.069735423 -1.1007817
-0.6534825 0.069748186 -1.1008397
-0.64662349 0.06961821 -1.1006346
-0.63216382 0.069936857 -1.1011884
-0.62467504 0.070055142 -1.1014352
-0.61514121 0.070207685 -1.1016884
-0.60494995 0.069869742 -1.1010963
-0.58049434 0.069503121 -1.1006951
-0.5749585 0.06934426 -1.1004235
-0.56313372 0.06999661 -1.1016726
-0.55299217 0.069212623 -1.1003411
-0.53284115 0.06993252 -1.1018087
-0.52283067 0.069360636 -1.1008843
-0.51251233 0.070267357 -1.1026255
-0.50620377 0.069224678 -1.1007473
-0.49708265 0.069365457 -1.1010894
-0.48549789 0.069540165 -1.101441
-0.47506842 0.068886794 -1.1003051
-0.46284139 0.068987831 -1.1006634
-0.45471165 0.06929297 -1.1013098
-0.44624403 0.06903147 -1.1008477
-0.43607056 0.069374703 -1.1015759
-0.42707381 0.069751754 -1.1023395
-0.41599733 0.069512881 -1.1020675
-0.40507624 0.069063514 -1.101365
-0.39320129 0.069831178 -1.1029969
-0.38635105 0.069206506 -1.1019453
-0.37482738 0.069164082 -1.1020643
-0.36553475 0.069400296 -1.1024643
-0.35428816 0.067984618 -1.1015708
-0.3461898 0.069653705 -1.1031067
-0.33581617 0.068424299 -1.102403
-0.32440922 0.06841071 -1.1025348
-0.31608722 0.0677054 -1.1027132
-0.30338633 0.068307035 -1.1029215
-0.29386249 0.068326354 -1.1031204
-0.28537589 0.068326458 -1.1036265
-0.27600375 0.068074822 -1.1042247
-0.26535425 0.067647107 -1.1036359
-0.25584403 0.067808472 -1.1037731
-0.24495016 0.067254938 -1.1029083
-0.23515095 0.067124911 -1.103164
-0.22473101 0.067200162 -1.1030999
-0.21451066 0.066746056 -1.1033173
-0.20483124 0.067454964 -1.103362
-0.19554088 0.066538244 -1.1040082
-0.18734953 0.066860355 -1.1043276
-0.17355815 0.066340126 -1.1043816
-0.16625091 0.066826195 -1.1051452
-0.15422764 0.0662558 -1.1042408
-0.14587151 0.066450462 -1.1047305
-0.13472943 0.065735653 -1.1042975
-0.12531936 0.066207029 -1.1054173
-0.11455363 0.065912955 -1.1051556
-0.1051094 0.065432943 -1.1049994
-0.095402904 0.065107487 -1.1053067
-0.083117403 0.064993657 -1.1055416
-0.074120529 0.064805873 -1.1052599
-0.064733401 0.06515801 -1.106236
-0.055380773 0.065114617 -1.1062702
-0.047264017 0.065575331 -1.1068028
-0.035209842 0.06508261 -1.1064886
-0.025705444 0.064122766 -1.105927
-0.014938403 0.064253472 -1.1067988
-0.0053700195 0.063687153 -1.1061606
0.0053580259 0.063920744 -1.1060891
0.014766443 0.063883148 -1.1061739
0.026115671 0.064287789 -1.1057435
0.035999939 0.064190149 -1.1064187
0.044876218 0.063730076 -1.1064109
0.054971091 0.064251557 -1.1071256
0.066046737 0.063574828 -1.1064504
0.07512673 0.063462079 -1.1071203
0.086541958 0.064104952 -1.1082823
0.095324844 0.062898092 -1.10736
0.1042797 0.062843315 -1.107759
0.11551532 0.062888891 -1.1075959
0.12465277 0.063257605 -1.108081
0.13558096 0.062595934 -1.1075467
0.14521915 0.063592136 -1.1083401
0.15513404 0.062963367 -1.1074576
0.16425675 0.062818691 -1.1070812
0.17623673 0.063101105 -1.1078744
0.18492679 0.063421085 -1.1084734
0.19355892 0.063017026 -1.1074092
0.20547442 0.06310416 -1.1083461
0.21559525 0.063447408 -1.1086208
0.22478755 0.063242279 -1.1078128
0.23585956 0.062849566 -1.1076789
0.24467432 0.062632121 -1.1080625
0.2547203 0.062939771 -1.108656
0.26465088 0.062135391 -1.1091034
0.2738947 0.061695512 -1.1087736
0.28563082 0.061640285 -1.1093961
0.29451132 0.06176107 -1.1101319
0.3037892 0.061237026 -1.1094723
0.31447148 0.062205955 -1.1107107
0.3252036 0.061239973 -1.1103938
0.33491403 0.061172519 -1.1102808
0.34468824 0.061337277 -1.1110805
0.35556716 0.061287411 -1.111055
0.36610976 0.060665499 -1.1108708
0.3757191 0.060756866 -1.1109251
0.38514978 0.061491575 -1.1117438
0.3946887 0.061639957 -1.1118268
0.40628448 0.061495434 -1.1114801
0.41584033 0.061592687 -1.1110469
0.42515031 0.0610152 -1.1107283
0.43385467 0.061246119 -1.1119471
0.44273284 0.061048623 -1.1132671
0.44997627 0.059832826 -1.1136246
0.4536534 0.057308502 -1.1181964
-0.74280554 0.071900599 -1.1095769
-0.73397976 0.071421713 -1.1069548
-0.72514391 0.071294688 -1.1055638
-0.7150811 0.072152376 -1.1058997
-0.70466906 0.072105728 -1.105311
-0.69461739 0.072375469 -1.1053449
-0.68529344 0.071960971 -1.104654
-0.67511684 0.072460763 -1.1056674
-0.66521686 0.072905518 -1.1065214
-0.65430242 0.072465956 -1.1057724
-0.64581209 0.07232663 -1.1054995
-0.63533759 0.072542772 -1.1059171
-0.62448227 0.072643846 -1.1060845
-0.61552608 0.072711371 -1.1061999
-0.60527778 0.072077572 -1.1051668
-0.59497976 0.072557062 -1.106075
-0.5856598 0.071876787 -1.1049635
-0.57466441 0.071992874 -1.1052879
-0.56433928 0.07206203 -1.1054269
-0.55566877 0.072068259 -1.1055732
-0.54545575 0.072330438 -1.1061352
-0.53498369 0.072618097 -1.1067765
-0.52529466 0.072135068 -1.1059357
-0.51538217 0.072081178 -1.105934
-0.504601 0.071974553 -1.1057613
-0.49465051 0.071422994 -1.104836
-0.48476511 0.071827255 -1.1056392
-0.47524282 0.072316155 -1.1065873
-0.46429783 0.071910508 -1.1059641
-0.45432436 0.072199374 -1.106571
-0.44473296 0.072123073 -1.1064858
-0.43472719 0.071888089 -1.1061308
-0.42475191 0.071830101 -1.1061502
-0.413809 0.072098531 -1.1067365
-0.4057233 0.072231509 -1.1070948
-0.39590836 0.072395772 -1.1074567
-0.38436201 0.071461774 -1.1060661
-0.37418786 0.072225332 -1.1075599
-0.36466822 0.072114415 -1.1073737
-0.35567251 0.072122566 -1.1073911
-0.34500238 0.071741968 -1.1067851
-0.33423951 0.072047278 -1.1072828
-0.32490885 0.071713276 -1.1067272
-0.31397781 0.071461335 -1.1063261
-0.30587387 0.071948536 -1.1072839
-0.29564431 0.071390547 -1.1062939
-0.28573376 0.071859471 -1.1077383
-0.27474022 0.071468338 -1.1070811
-0.26622903 0.072183691 -1.1076989
-0.19541278 0.07072781 -1.1073887
-0.18581893 0.069598153 -1.106934
-0.17510918 0.070724659 -1.1080027
-0.1666147 0.069976546 -1.1071464
-0.1550986 0.069333807 -1.1071928
-0.14546408 0.0703362 -1.1081821
-0.13487628 0.069740474 -1.1081324
-0.12444916 0.069696188 -1.1083463
-0.11462837 0.068723276 -1.1076546
-0.10352837 0.069470696 -1.1099818
-0.094998434 0.069059312 -1.1097887
-0.083931439 0.068622246 -1.1092402
-0.075206213 0.0688022 -1.1094774
-0.065017134 0.067816667 -1.1089063
-0.055218495 0.067914471 -1.1091744
-0.04632201 0.068588868 -1.110369
-0.034002576 0.068040282 -1.1102054
-0.026488902 0.067769893 -1.110415
-0.014149855 0.067251101 -1.1104982
-0.0060520456 0.067506276 -1.1106274
0.0058187926 0.068286605 -1.1106994
0.013815261 0.068994522 -1.1109194
0.025441356 0.068234272 -1.1109123
0.034011163 0.068764895 -1.1114639
0.044811659 0.067842379 -1.1103406
0.054664284 0.067525916 -1.110458
0.064656787 0.067079857 -1.1108011
0.075830825 0.067928948 -1.1117741
0.084719308 0.066619076 -1.1111225
0.094929479 0.066722058 -1.1119153
0.10711426 0.066977143 -1.1116483
0.11444941 0.066874199 -1.1118666
0.12483829 0.066936918 -1.1120291
0.13618027 0.067225397 -1.1121807
0.14587285 0.067023575 -1.1117799
0.15495168 0.067121297 -1.1119354
0.16603975 0.0663734 -1.1113678
0.17558244 0.066742204 -1.1114465
0.18539797 0.066605709 -1.1112459
0.19545759 0.067090578 -1.1118289
0.20725033 0.067483254 -1.1120822
0.21490982 0.066807762 -1.1113446
0.22458953 0.065923207 -1.1108271
0.23446321 0.066480458 -1.111079
0.24356113 0.066252917 -1.1111382
0.25494021 0.066362813 -1.1127514
0.26552513 0.065828167 -1.1127294
0.27521762 0.065667786 -1.1124998
0.28312832 0.065588251 -1.1136284
0.29410365 0.065587141 -1.1138141
0.30309439 0.065159023 -1.113681
0.31616542 0.064914048 -1.1141856
0.32439214 0.065011129 -1.11439
0.33599159 0.065152839 -1.11471
0.34574988 0.064839445 -1.1147046
0.35392907 0.065022103 -1.1148734
0.36431453 0.065108649 -1.1147163
0.37504447 0.064076297 -1.114355
0.38503397 0.06462656 -1.1147501
0.39429116 0.066416413 -1.1153616
0.40540454 0.064672835 -1.1144363
0.41394922 0.065274999 -1.114292
0.42502001 0.064854674 -1.1144263
0.43327871 0.065340757 -1.1143421
0.44386348 0.064258121 -1.1159161
0.45050022 0.063268863 -1.1160876
-0.71522152 -0.071213081 -1.1025356
-0.70732212 -0.071116641 -1.1034518
-0.69898081 -0.069009311 -1.1052674
-0.69244075 -0.068798184 -1.1074685
-0.68711722 -0.065911062 -1.1090723
-0.72254854 -0.063683055 -1.0988392
-0.71525407 -0.063579626 -1.0986698
-0.7068519 -0.062137347 -1.0997684
-0.69884408 -0.061485853 -1.1014702
-0.69054395 -0.059932705 -1.1036979
-0.68626106 -0.059163414 -1.1064008
-0.72355843 -0.055234317 -1.095394
-0.71761429 -0.055148646 -1.0941362
-0.706433 -0.055269122 -1.0962383
-0.69775885 -0.052316956 -1.0967847
-0.6883409 -0.052163169 -1.0999373
-0.6844247 -0.050537866 -1.1022388
-0.72195321 -0.048454951 -1.0913144
-0.71351629 -0.046793286 -1.0902133
-0.70728004 -0.048432343 -1.0918741
-0.69797373 -0.045938451 -1.0936091
-0.68381071 -0.042961884 -1.0973967
-0.68124932 -0.041769706 -1.0976528
-0.73275685 -0.037145231 -1.0915656
-0.68010938 -0.036954571 -1.0951612
-0.67844629 -0.034267351 -1.0940682
-0.73426509 -0.03177138 -1.0894482
-0.67921621 -0.031323452 -1.0916041
-0.67688996 -0.031910244 -1.0935756
-0.66452199 -0.026178822 -1.0923938
-0.65712208 -0.026791511 -1.0948377
-0.64599884 -0.026120478 -1.0949172
-0.63524824 -0.025073659 -1.0942229
-0.62363732 -0.024709929 -1.0942938
-0.61557901 -0.024835655 -1.0929283
-0.60464001 -0.023909837 -1.0912119
-0.59548217 -0.024826016 -1.0898504
-0.58535922 -0.025381088 -1.0897439
-0.57466614 -0.023959294 -1.0895306
-0.56443745 -0.024197867 -1.089642
-0.55490237 -0.024395915 -1.0909553
-0.54458988 -0.024528991 -1.0918317
-0.53523844 -0.023591409 -1.0926502
-0.524571 -0.023151215 -1.0927938
-0.51537168 -0.023128578 -1.0935903
-0.50479424 -0.022959583 -1.0942899
-0.49529746 -0.022214167 -1.0947177
-0.48592928 -0.022414945 -1.095518
-0.47591415 -0.021943608 -1.0955688
-0.4650611 -0.021656536 -1.0962301
-0.45481187 -0.021994852 -1.0969232
-0.44553614 -0.021328641 -1.0975075
-0.43528047 -0.021110969 -1.0982528
-0.42539907 -0.020518163 -1.0988259
-0.41504514 -0.019846439 -1.1000026
-0.40772867 -0.019099377 -1.1003737
-0.39572531 -0.019609828 -1.1014359
-0.38829085 -0.020218391 -1.1022422
-0.35772213 -0.015969833 -1.1028227
-0.63807225 -0.019290375 -1.0904325
-0.58840472 -0.019940723 -1.0876817
-0.5782268 -0.018811192 -1.0875496
-0.56684023 -0.018812772 -1.0877421
-0.55522788 -0.01885598 -1.0889291
-0.54554772 -0.017918326 -1.0892479
-0.53531587 -0.017193325 -1.0899173
-0.52544558 -0.017429518 -1.0903378
-0.51536769 -0.016497692 -1.0910419
-0.5044601 -0.016219117 -1.0912766
-0.49443337 -0.015635837 -1.0917394
-0.48448947 -0.015542856 -1.0924941
-0.47524232 -0.015811956 -1.0932655
-0.46507517 -0.015510716 -1.093516
-0.45467776 -0.015437024 -1.0940984
-0.4444806 -0.015380463 -1.0947727
-0.43518835 -0.015325861 -1.0955572
-0.42614856 -0.014816686 -1.0961299
-0.41463417 -0.013742482 -1.0970837
-0.40445694 -0.013551014 -1.0978256
-0.39645869 -0.013821529 -1.0984422
-0.38621336 -0.013018956 -1.0991164
-0.37401062 -0.011104752 -1.0986116
-0.36663583 -0.012547905 -1.1000679
-0.35433704 -0.012412761 -1.1012516
-0.34550175 -0.011198156 -1.1007173
-0.33417365 -0.011984174 -1.1020588
-0.32392904 -0.012442597 -1.1028072
-0.31995216 -0.0096698441 -1.1014546
-0.30160719 -0.0146239 -1.1043322
-0.29915082 -0.014766811 -1.1045187
-0.2728866 -0.013389523 -1.1063575
-0.26850984 -0.01269792 -1.1063485
-0.25906563 -0.011746033 -1.1062268
-0.22571807 -0.0112162 -1.1074175
-0.18285163 -0.010326403 -1.1108572
-0.53708607 -0.010673244 -1.0865345
-0.51463747 -0.010966826 -1.0882453
-0.50184536 -0.0098459786 -1.0882895
-0.49283692 -0.0092352359 -1.0886177
-0.48651731 -0.0085079577 -1.0887203
-0.47514293 -0.0080405241 -1.0893139
-0.46382722 -0.0079265675 -1.0897746
-0.45453182 -0.0068918159 -1.0899847
-0.44487461 -0.0068138279 -1.0907991
-0.43536782 -0.0069106682 -1.0914596
-0.42509693 -0.0067175911 -1.0921599
-0.41463128 -0.0061365436 -1.0929117
-0.40509725 -0.0060728979 -1.0939178
-0.39510798 -0.0056558205 -1.0940742
-0.38424468 -0.005231021 -1.0946075
-0.37526566 -0.0055770297 -1.0954598
-0.36586574 -0.0052860952 -1.0962305
-0.3553032 -0.004276949 -1.0965395
-0.34545502 -0.0046968996 -1.0971107
-0.33420762 -0.004523301 -1.0980378
-0.32618099 -0.0040127733 -1.0981474
-0.31536105 -0.0040495093 -1.0985407
-0.30520478 -0.0036323068 -1.098938
-0.29560769 -0.0029045308 -1.0990431
-0.28546968 -0.0019115898 -1.0995671
-0.27489361 -0.00070970517 -1.0996677
-0.26587534 -0.0027700018 -1.1012516
-0.2546615 -0.0015347881 -1.1011778
-0.23432833 -0.0015279866 -1.1024933
-0.2148336 0.00094862375 -1.1025603
-0.44986743 -0.0020417445 -1.0874652
-0.444038 -0.0012941075 -1.0873524
-0.43526363 -0.00050185667 -1.0871196
-0.42628118 -0.00036677209 -1.0880165
-0.41427746 0.00038826145 -1.088505
-0.40410045 0.00031376907 -1.0896848
-0.39501911 0.001195387 -1.0890659
-0.38284087 0.0021691008 -1.0898077
-0.37499318 0.0020765613 -1.0902811
-0.36438575 0.0023745368 -1.0909148
-0.35449064 0.0027100884 -1.0911716
-0.3452661 0.0027424851 -1.0921777
-0.33495995 0.0032497158 -1.0922596
-0.32545397 0.0027722821 -1.0934533
-0.31512961 0.0033550675 -1.0935307
-0.30463138 0.0035716488 -1.093914
-0.29553619 0.0032459076 -1.0947776
-0.28499359 0.0037049814 -1.0951571
-0.27491847 0.003916611 -1.095644
-0.26534867 0.0042840047 -1.0957708
-0.2559174 0.004156047 -1.0966446
-0.24398738 0.0044447551 -1.0967864
-0.23559888 0.0064016315 -1.0956331
-0.22471438 0.0049169767 -1.0977749
-0.21503882 0.0061959508 -1.0975822
-0.20549195 0.0060224975 -1.0987467
-0.1846683 0.0071303402 -1.0988709
-0.16443041 0.0092518833 -1.0993174
-0.40226534 0.006385392 -1.0857884
-0.38093114 0.0062543238 -1.0871974
-0.37660068 0.010627792 -1.0854617
-0.36160946 0.0084623881 -1.0870836
-0.3570202 0.011037061 -1.0864371
-0.34375829 0.0088418219 -1.0882578
-0.33471236 0.011203396 -1.0872979
-0.32420602 0.0093329558 -1.0887876
-0.31470302 0.011350374 -1.0884346
-0.30459708 0.011297801 -1.0888205
-0.29433396 0.011205619 -1.0894133
-0.2845991 0.011704306 -1.0894825
-0.2746821 0.011030386 -1.0907254
-0.26460689 0.012311076 -1.0904746
-0.25531244 0.011909406 -1.0916286
-0.24489868 0.012489544 -1.0914139
-0.23497964 0.012276131 -1.0921723
-0.22522752 0.013004361 -1.0924914
-0.21457627 0.013066178 -1.0930543
-0.2053708 0.013126515 -1.0938658
-0.1944686 0.013643798 -1.0938611
-0.1850663 0.013778931 -1.0945729
-0.17356439 0.013990829 -1.0950514
-0.16520409 0.014481398 -1.096169
-0.15508355 0.01424779 -1.0968291
-0.14449799 0.017669421 -1.0955786
-0.134895 0.014673821 -1.097736
-0.1266906 0.017271571 -1.0970672
-0.11396002 0.015053743 -1.099636
-0.10619065 0.016507663 -1.0990866
-0.094524421 0.015658412 -1.1000451
-0.080290854 0.018905817 -1.0995631
-0.062939003 0.020092728 -1.0991119
-0.33419117 0.017520202 -1.0849377
-0.31241903 0.017653106 -1.0850731
-0.30402198 0.020516967 -1.0843821
-0.29299667 0.017752526 -1.0859016
-0.28321674 0.0220498 -1.0851877
-0.27411541 0.019461423 -1.0861259
-0.26387399 0.018844979 -1.0872401
-0.25462604 0.018960662 -1.0876226
-0.24492855 0.019544311 -1.0882013
-0.23488276 0.020953918 -1.0880468
-0.22476162 0.019869465 -1.0891863
-0.21407841 0.02096997 -1.0888921
-0.20472923 0.021316981 -1.0895969
-0.19404149 0.021190085 -1.090225
-0.18444467 0.022355307 -1.0905844
-0.17409906 0.022566261 -1.0913953
-0.16439649 0.023052379 -1.0919838
-0.15411061 0.02327637 -1.0928584
-0.1443781 0.023462119 -1.0935093
-0.13476661 0.023989469 -1.0940804
-0.12453645 0.024024287 -1.0942352
-0.11439714 0.023981208 -1.0949496
-0.10498977 0.024390854 -1.0953872
-0.094152287 0.024835296 -1.0959138
-0.084934562 0.025227435 -1.0961354
-0.074245229 0.024696557 -1.0967144
-0.064510033 0.025959676 -1.0972536
-0.055306803 0.026463591 -1.097417
-0.044860613 0.02820532 -1.0974404
-0.036486141 0.028946644 -1.0975192
-0.02246117 0.02552584 -1.099774
-0.014676538 0.02746457 -1.0989016
-0.00986287 0.025795802 -1.1001219
-0.1234675 0.029098947 -1.091743
-0.11563908 0.030263636 -1.0908411
-0.1042698 0.029497948 -1.0924014
-0.094221547 0.029229045 -1.0944382
-0.084328391 0.029783098 -1.0942506
-0.076148145 0.030839249 -1.0943573
-0.063858375 0.031176066 -1.0945427
-0.054404233 0.030687902 -1.0957236
-0.045447793 0.030975074 -1.0963641
-0.033508364 0.03056482 -1.0969
-0.024690518 0.032070473 -1.0960108
-0.015519002 0.03201976 -1.0966818
-0.0081569022 0.031574063 -1.0977058
0.0069927918 0.031750727 -1.0979269
0.010963257 0.031779945 -1.0982022
0.024591068 0.035097811 -1.09588
0.034501962 0.033086415 -1.0984613
0.049575254 0.032948341 -1.0990192
0.055534013 0.038427047 -1.0952585
0.064603522 0.037456091 -1.0967708
0.073725075 0.036606453 -1.0977237
0.081059515 0.035994943 -1.0989499
0.097867973 0.036063962 -1.1008751
0.10566355 0.038642101 -1.0984746
0.11448925 0.040055651 -1.0977397
0.12500623 0.037876084 -1.1001742
0.14687012 0.041340929 -1.0981363
0.15367457 0.041944798 -1.0981126
0.16596389 0.040387902 -1.1015468
0.17224684 0.040680639 -1.1010813
0.19746107 0.043128621 -1.1006035
0.20433202 0.044091873 -1.1000761
0.21437992 0.042180814 -1.1032939
0.24717341 0.044695523 -1.1027422
0.25391746 0.045125611 -1.1026167
0.26458329 0.04472081 -1.1045856
0.27213174 0.048623633 -1.0995077
0.28519389 0.048736561 -1.1011668
0.29842231 0.04649739 -1.1044189
0.30273807 0.047715668 -1.1038535
0.31493059 0.049444739 -1.1027164
0.32269806 0.052443825 -1.1005888
0.33469588 0.052392527 -1.1020353
0.34191495 0.051263563 -1.1037526
0.35266769 0.053925827 -1.1021708
0.36591011 0.054325931 -1.1022592
0.37267867 0.054010402 -1.1031878
0.38666123 0.05320923 -1.1032381
0.39560896 0.053096157 -1.1046041
0.40692729 0.052514184 -1.1041237
0.41598362 0.051148757 -1.1057007
0.4245283 0.051544014 -1.1052876
0.43337622 0.050197825 -1.1066869
0.43942091 0.052043695 -1.1085835
0.4448601 0.053436495 -1.1092657
0.44780904 0.053276557 -1.1129935
0.042958088 0.053723741 -1.0950341
0.068557613 0.053759694 -1.0958184
0.07117746 0.05406522 -1.0967475
0.098831676 0.05308238 -1.0963269
0.12371155 0.053427719 -1.0965601
0.14349093 0.05310677 -1.0962684
0.16674356 0.053536315 -1.0964638
0.18814959 0.053276516 -1.0961487
0.20965311 0.053056583 -1.0963759
0.2249856 0.053788915 -1.098248
0.2426973 0.052872963 -1.0973809
0.26884642 0.052382078 -1.099123
0.28187656 0.052009225 -1.0990086
0.31331974 0.052930206 -1.1015209
0.32454103 0.053128105 -1.1027087
0.34416384 0.053685937 -1.103835
0.35459906 0.052173316 -1.1021725
0.36895314 0.051836852 -1.1024668
0.3974551 0.057444535 -1.1045896
0.4033474 0.05656768 -1.1044997
0.41564122 0.055623919 -1.1047754
0.42526996 0.054570045 -1.1062782
0.43279186 0.052986007 -1.1063325
0.44012198 0.053772714 -1.1068381
0.44525191 0.055012323 -1.1090671
-0.74360472 0.064688839 -1.0966154
-0.73445243 0.064713374 -1.0946472
-0.7241872 0.06577228 -1.0949761
-0.71443796 0.06566599 -1.0942907
-0.70508158 0.066092841 -1.0947402
-0.69505 0.066784754 -1.0953938
-0.68444163 0.066539362 -1.0948718
-0.67515504 0.066100769 -1.094185
-0.66479796 0.066901386 -1.0956153
-0.65503442 0.066622376 -1.09513
-0.64447492 0.066559732 -1.0950598
-0.6350081 0.066340521 -1.094647
-0.62434006 0.066331014 -1.094622
-0.61500007 0.066439629 -1.0948367
-0.60360503 0.065671869 -1.0934062
-0.59573251 0.067060456 -1.0960062
-0.58486283 0.066890724 -1.0957974
-0.57429248 0.066860609 -1.0958108
-0.56535983 0.066463724 -1.0950665
-0.55381393 0.066320419 -1.094999
-0.54475588 0.066125736 -1.0946957
-0.53563052 0.066310935 -1.0951666
-0.5248301 0.065798633 -1.0943242
-0.51516825 0.06585595 -1.0945834
-0.5043574 0.066214763 -1.0952996
-0.49462077 0.065489672 -1.0951465
-0.48524788 0.065600567 -1.0959276
-0.47591987 0.064741008 -1.0953007
-0.4655571 0.064656138 -1.0952994
-0.45510691 0.064703956 -1.0960014
-0.4450362 0.065062188 -1.0962704
-0.43501499 0.064263389 -1.0953748
-0.4247089 0.064275481 -1.0955443
-0.41566631 0.063739233 -1.0961748
-0.40491793 0.063787445 -1.0961175
-0.39488372 0.064572893 -1.0962361
-0.3845222 0.063196279 -1.095663
-0.37574393 0.064010657 -1.0965149
-0.36515436 0.063298121 -1.0956565
-0.35527125 0.062735014 -1.0956582
-0.34488392 0.063213132 -1.0962907
-0.33460891 0.062804371 -1.0961295
-0.32608095 0.062970951 -1.0964731
-0.31377146 0.063557357 -1.0976038
-0.30559421 0.063334256 -1.0976804
-0.29496309 0.062939696 -1.0975283
-0.2847932 0.062324207 -1.0970643
-0.27490684 0.061912175 -1.0969143
-0.26493219 0.062021386 -1.0968132
-0.25480688 0.062704042 -1.0976778
-0.24461536 0.062213901 -1.0968636
-0.23586133 0.062354714 -1.0969453
-0.22422993 0.063125849 -1.097831
-0.21561633 0.061567839 -1.097461
-0.20568013 0.061249655 -1.0967019
-0.19479577 0.061907478 -1.0973004
-0.18461719 0.061991677 -1.0979159
-0.17541258 0.06195752 -1.0984718
-0.16413999 0.06197929 -1.0980304
-0.15426832 0.062554546 -1.0988041
-0.14439379 0.06159142 -1.0984777
-0.13552593 0.061515398 -1.0986562
-0.12369973 0.06152638 -1.0986071
-0.11455244 0.06073121 -1.0987767
-0.10460394 0.06031578 -1.0983529
-0.094487943 0.060207624 -1.0988839
-0.084653772 0.060427126 -1.0991746
-0.074581817 0.059754048 -1.0987092
-0.06450256 0.059985217 -1.0992804
-0.054693144 0.059159562 -1.0986904
-0.044859812 0.060176928 -1.0999442
-0.034533784 0.059611112 -1.0992216
-0.025561519 0.058547776 -1.0990489
-0.014506808 0.059378333 -1.1008559
-0.0045963917 0.058485016 -1.099564
0.0045494083 0.05961863 -1.1009977
0.015656717 0.058055189 -1.0994096
0.025048416 0.060013492 -1.10031
0.033909127 0.058536522 -1.0997907
0.044422396 0.057407524 -1.0991637
0.055043768 0.057918314 -1.0999961
0.064046271 0.058953431 -1.1013523
0.074844763 0.057937104 -1.1004081
0.08367151 0.057961848 -1.100641
0.095119514 0.056838028 -1.1001635
0.1054782 0.057126921 -1.1003613
0.11406726 0.057145424 -1.1008965
0.12566264 0.056701113 -1.1001735
0.1349567 0.057356499 -1.1010365
0.1447442 0.056852099 -1.1001652
0.15485346 0.056879953 -1.0996786
0.16569115 0.057694681 -1.1007359
0.17455634 0.056999341 -1.1002294
0.18419074 0.057680685 -1.1011517
0.19541363 0.057980061 -1.1017419
0.20533429 0.056705683 -1.1006063
0.21467708 0.057727344 -1.1013932
0.22466065 0.057137392 -1.1006578
0.23427081 0.056952652 -1.1012975
0.24427265 0.056796946 -1.1006014
0.25599596 0.056781597 -1.1014018
0.26449597 0.055962656 -1.10207
0.27524632 0.055790197 -1.1021556
0.28401116 0.055366632 -1.1023985
0.29359308 0.056014817 -1.1037533
0.3049503 0.055682067 -1.103797
0.31497091 0.055833794 -1.1041605
0.32480994 0.055545371 -1.1044868
0.33420679 0.055780001 -1.1051358
0.34400231 0.054345489 -1.1030222
0.35459864 0.055257499 -1.1049683
0.36401248 0.055284597 -1.1058493
0.37443069 0.054567628 -1.1046861
0.38605741 0.055839315 -1.1058953
0.39561182 0.055948231 -1.106076
0.40628698 0.056397654 -1.1063749
0.41506737 0.056541178 -1.1063929
0.4250012 0.057369739 -1.1073871
0.43334389 0.056494758 -1.1069517
0.44290778 0.055638805 -1.1072088
0.44799966 0.054004211 -1.1072952
-0.73706788 0.067982696 -1.1013563
-0.62455016 0.069327816 -1.1000971
-0.59298706 0.068958633 -1.0995668
-0.57506734 0.068885654 -1.0995657
-0.53649223 0.069226958 -1.100494
-0.52619666 0.069027208 -1.1001564
-0.51787758 0.068631902 -1.0996473
-0.45666328 0.068700381 -1.1001879
-0.44411534 0.068475522 -1.0998143
-0.43316764 0.068852358 -1.1006767
-0.23705027 0.066917069 -1.1019077
-0.22082183 0.067197271 -1.1022208
-0.71640581 -0.061743237 -1.0983185
-0.69874614 -0.056066588 -1.0985113
-0.72034603 -0.049652886 -1.0918939
-0.714405 -0.052403785 -1.0931697
-0.70733082 -0.051377658 -1.093354
-0.69930738 -0.051531382 -1.0955522
-0.69069028 -0.048696905 -1.0965381
-0.68525416 -0.045094352 -1.096469
-0.72137058 -0.041846059 -1.0872372
-0.71480823 -0.043474365 -1.0882388
-0.70602864 -0.043106209 -1.0890656
-0.69733667 -0.042103998 -1.0910424
-0.68790913 -0.04058652 -1.0928526
-0.68277431 -0.040345017 -1.0947691
-0.72221005 -0.036330871 -1.0838763
-0.71547115 -0.036473665 -1.0837752
-0.70611638 -0.036230206 -1.0851281
-0.69685584 -0.033922289 -1.0860891
-0.68520808 -0.032318767 -1.0880573
-0.6808812 -0.031374149 -1.0895551
-0.72386271 -0.027649485 -1.0794972
-0.68315881 -0.025700642 -1.0851283
-0.67612475 -0.023731306 -1.0862557
-0.66566885 -0.021833779 -1.087936
-0.65545547 -0.020966258 -1.0895461
-0.64569426 -0.020549314 -1.0901477
-0.6353634 -0.020742089 -1.0906888
-0.62500322 -0.020805812 -1.0912911
-0.61463857 -0.020729318 -1.0898519
-0.60629946 -0.022946244 -1.0903069
-0.59398466 -0.022296406 -1.0883434
-0.58453631 -0.022836635 -1.0886571
-0.57630426 -0.023554146 -1.0893804
-0.56495994 -0.02251186 -1.0889984
-0.5551365 -0.022114215 -1.0901445
-0.54590625 -0.021596365 -1.0907193
-0.53637546 -0.022331584 -1.0922129
-0.52109772 -0.021093527 -1.0923299
-0.50819278 -0.020563856 -1.0928397
-0.49306166 -0.021651385 -1.0942265
-0.46664232 -0.019797277 -1.0952351
-0.45799914 -0.018821292 -1.0953989
-0.43453535 -0.015630262 -1.0956799
-0.42219248 -0.018010551 -1.0980481
-0.418147 -0.017196005 -1.0983423
-0.35415974 -0.010874365 -1.1003898
-0.33867714 -0.012205488 -1.1016566
-0.73298347 -0.018498931 -1.0795931
-0.72985691 -0.018878158 -1.0773081
-0.68036282 -0.018264368 -1.0808514
-0.67397082 -0.017047066 -1.0818887
-0.66514313 -0.014794818 -1.082675
-0.65539128 -0.014447565 -1.0841221
-0.64496875 -0.014330126 -1.0849063
-0.6350677 -0.013941298 -1.0848569
-0.62492275 -0.013976521 -1.0856608
-0.61504555 -0.014851495 -1.0860044
-0.60479736 -0.015110101 -1.0849614
-0.59518856 -0.015614761 -1.0853218
-0.58528525 -0.015330669 -1.0855711
-0.57530224 -0.015415583 -1.0861714
-0.56472993 -0.014495916 -1.0859119
-0.55515635 -0.014297596 -1.0866691
-0.54471892 -0.01366617 -1.087145
-0.53488159 -0.013229548 -1.0880731
-0.5251984 -0.013046812 -1.0883408
-0.51379699 -0.01354704 -1.0892893
-0.50727671 -0.013674137 -1.0898924
-0.49512732 -0.01255847 -1.0902147
-0.48343721 -0.011145934 -1.0902941
-0.47229999 -0.011701622 -1.0914268
-0.46854287 -0.0101195 -1.0908425
-0.3943958 -0.0074551669 -1.0950898
-0.20356321 -0.0016067659 -1.1046345
-0.099817969 0.001423926 -1.1103754
-0.67327172 -0.010964434 -1.0764611
-0.66274315 -0.010376473 -1.0784297
-0.65560055 -0.010411674 -1.0801666
-0.64488435 -0.0092075756 -1.0800753
-0.63462454 -0.0084286239 -1.0810037
-0.62465745 -0.0081262877 -1.0810812
-0.6141876 -0.0084067266 -1.0807949
-0.6044969 -0.0072517507 -1.0802338
-0.5946874 -0.0071684774 -1.0806373
-0.58528233 -0.0069648679 -1.0809398
-0.57493317 -0.0063255508 -1.0812221
-0.56503618 -0.0066865948 -1.0817542
-0.55467755 -0.0060597882 -1.0822711
-0.5447436 -0.0061991569 -1.083057
-0.53517264 -0.0058777574 -1.0837516
-0.52545667 -0.0057869251 -1.0842938
-0.51542419 -0.0052993018 -1.0849824
-0.50548244 -0.0052556531 -1.0852566
-0.49516734 -0.0049718842 -1.0858123
-0.48451629 -0.0050165113 -1.0867575
-0.47584423 -0.0043982491 -1.0870535
-0.46573436 -0.0046520089 -1.0877534
-0.45444167 -0.0045760712 -1.0884578
-0.44415787 -0.0038300399 -1.0888381
-0.43418777 -0.0029773081 -1.0891483
-0.42454481 -0.0028968996 -1.089811
-0.41634229 -0.001982372 -1.0899872
-0.40262783 -0.0017920248 -1.0910478
-0.39915085 -0.0019099346 -1.0910906
-0.38731566 0.00064686831 -1.0899627
-0.61500078 -0.0030821045 -1.0763278
-0.60478187 -0.0026741426 -1.0766352
-0.59158844 -0.001725567 -1.0765336
-0.5838902 -0.00068491488 -1.0766078
-0.57385331 -0.00085710513 -1.0769472
-0.56277853 -0.00049112143 -1.0776517
-0.55493158 -0.00089782546 -1.0783572
-0.5448541 0.00048180029 -1.0782064
-0.53538322 0.0011299453 -1.0787326
-0.52498907 7.5921394e-05 -1.0799994
-0.51356351 0.0019821725 -1.079764
-0.50427598 0.0028539889 -1.0795265
-0.49473628 0.0022030461 -1.0804724
-0.48519778 0.0024247475 -1.0810456
-0.47471276 0.0027379149 -1.081967
-0.46428248 0.0021718123 -1.08259
-0.45449838 0.002355864 -1.0828227
-0.44471037 0.0027753927 -1.0831228
-0.43433258 0.003470148 -1.0836602
-0.42443523 0.0035327061 -1.0846995
-0.41558632 0.0037164888 -1.0850959
-0.40494883 0.0046199113 -1.0857476
-0.39482605 0.0044322708 -1.0860233
-0.38523018 0.0043223198 -1.0869144
-0.37520018 0.0062714415 -1.0863304
-0.3658976 0.0060200365 -1.0875492
-0.35494772 0.0066014496 -1.0876408
-0.34341592 0.0057972255 -1.0892125
-0.33662674 0.0080735711 -1.0881839
-0.32392353 0.0072195306 -1.0891798
-0.30572289 0.0083077503 -1.0896881
-0.29135332 0.0099773509 -1.089648
-0.55882525 0.0062985611 -1.0748246
-0.54549664 0.0090579046 -1.0741545
-0.5231449 0.0097101964 -1.0758132
-0.51674145 0.010449072 -1.0756589
-0.50465304 0.010403813 -1.0764514
-0.49418923 0.010219445 -1.0768338
-0.48344454 0.010748341 -1.0776581
-0.47483882 0.011628109 -1.0777519
-0.46443266 0.011131288 -1.0784464
-0.45479414 0.01282419 -1.0780407
-0.44511399 0.011763731 -1.0790838
-0.43474481 0.012134218 -1.079403
-0.4245621 0.012770713 -1.079988
-0.41438243 0.012286694 -1.0809269
-0.40482533 0.013322704 -1.08083
-0.39477164 0.013082227 -1.0817574
-0.3844825 0.013313101 -1.0819727
-0.37529039 0.01308973 -1.0830013
-0.3649874 0.014153224 -1.0827769
-0.35432762 0.013905505 -1.0840547
-0.34572589 0.015080618 -1.0839497
-0.33520454 0.014402236 -1.0850171
-0.32532129 0.014110128 -1.0848597
-0.31568331 0.015310951 -1.0853558
-0.30524394 0.015839847 -1.0853957
-0.29637259 0.016011765 -1.0859951
-0.28471744 0.01578428 -1.0863539
-0.27526143 0.016248152 -1.0867518
-0.26576802 0.016161118 -1.0876141
-0.25416261 0.016218914 -1.0881996
-0.24566142 0.015629323 -1.0887477
-0.22008704 0.019209486 -1.0888175
-0.2084447 0.016547274 -1.0907568
-0.47329715 0.01874112 -1.075213
-0.46264613 0.019189734 -1.0754718
-0.44524339 0.019169668 -1.0763401
-0.43503189 0.019489978 -1.0768802
-0.42302746 0.019110939 -1.0776211
-0.41405165 0.019486921 -1.077533
-0.40460226 0.0195859 -1.0779649
-0.39429772 0.019811528 -1.0787841
-0.38683069 0.019662019 -1.0791582
-0.37383699 0.020392412 -1.0793397
-0.36557463 0.020487539 -1.0799066
-0.35482469 0.020688245 -1.0806081
-0.34421661 0.021392023 -1.0805918
-0.33475 0.021615598 -1.0811009
-0.32528579 0.021711269 -1.0818833
-0.31490302 0.021449089 -1.0822402
-0.30544525 0.022064002 -1.0826145
-0.29545701 0.022478769 -1.0827215
-0.28487632 0.022021299 -1.0833782
-0.27488282 0.02212362 -1.0839247
-0.26491693 0.022875978 -1.0839955
-0.25447249 0.022927962 -1.0846175
-0.24432808 0.023275379 -1.0853673
-0.23386303 0.023385484 -1.0861651
-0.22532894 0.025229832 -1.0856676
-0.21547508 0.025988637 -1.0858765
-0.202649 0.025752621 -1.0871079
-0.19657741 0.026499363 -1.0867858
-0.18307993 0.026555572 -1.0870917
-0.17513648 0.029205656 -1.086607
-0.16977517 0.028933538 -1.0877692
-0.15691666 0.028908083 -1.0887723
-0.14819588 0.033913411 -1.0845467
-0.13206059 0.034598861 -1.0853324
-0.12942697 0.032678708 -1.0881084
-0.11197236 0.031210165 -1.0902803
-0.10585147 0.035739295 -1.0866373
-0.094713621 0.035692908 -1.0871705
-0.085202172 0.035338197 -1.0879452
-0.079012461 0.033064354 -1.0912472
-0.061370514 0.037920911 -1.0884956
-0.05562795 0.037946928 -1.0887079
-0.045338657 0.036871705 -1.0904937
-0.035326146 0.03672218 -1.09135
-0.027811216 0.036653027 -1.0914798
-0.0026770926 0.037607394 -1.0918576
0.0047448133 0.037969731 -1.0918912
0.014479424 0.039221622 -1.0909383
0.029341264 0.042795625 -1.0875616
0.036491249 0.041579586 -1.0897688
0.045733403 0.04121317 -1.0908166
0.054581143 0.040587533 -1.0931069
0.067519583 0.043188088 -1.0898445
0.074121378 0.043477487 -1.0905563
0.083047822 0.044694245 -1.089061
0.095735319 0.042374417 -1.0933172
0.10407273 0.045335099 -1.0906398
0.11785987 0.047937047 -1.0880057
0.12551479 0.044847019 -1.0922099
0.13228627 0.046812702 -1.0894336
0.14389214 0.046832576 -1.0909544
0.15516143 0.04613851 -1.0935864
0.16427402 0.048247203 -1.0918785
0.17447916 0.048565537 -1.0917057
0.18336324 0.047153097 -1.0952746
0.19473486 0.048760951 -1.0939231
0.2036297 0.049651742 -1.0922922
0.21536855 0.048717041 -1.0952932
0.22567321 0.048901733 -1.0958735
0.23353244 0.049220808 -1.0964631
0.24065141 0.047627922 -1.0976989
0.099227071 0.047982231 -1.0887424
0.1008143 0.048229422 -1.0884371
0.11638518 0.050485834 -1.0867192
0.1242427 0.048836913 -1.0892894
0.13915059 0.047767088 -1.0905219
0.14347184 0.049800631 -1.0883603
0.15557976 0.05097995 -1.0889959
0.1627077 0.049861722 -1.0902696
0.17551562 0.051554389 -1.0894778
0.18026705 0.050488379 -1.0909324
0.19623137 0.052074779 -1.0904239
0.202757 0.052799582 -1.0902038
0.2137699 0.052420888 -1.0916308
0.22368671 0.053289268 -1.0919478
0.23410827 0.052849554 -1.092944
0.24374162 0.053376358 -1.0923083
0.25496155 0.053895351 -1.0927628
0.26393944 0.05461774 -1.0921808
0.27399278 0.054476202 -1.0933996
0.28411114 0.054894462 -1.0939493
0.29398793 0.054860901 -1.0955418
0.30371049 0.054955214 -1.0957409
0.31327552 0.055611476 -1.0955697
0.32409737 0.055962414 -1.0964986
0.33314425 0.0566581 -1.0961224
0.34388742 0.056698766 -1.0988967
0.35472977 0.056916453 -1.0986236
0.36361837 0.057309307 -1.0993965
0.37444019 0.057031579 -1.0997745
0.38386735 0.056387853 -1.1006867
0.39644822 0.055953398 -1.1016983
0.40317616 0.055223711 -1.1012695
0.41577968 0.054249082 -1.1027724
0.42409271 0.053118188 -1.103839
0.43234938 0.053313132 -1.1038775
0.43964297 0.052025758 -1.1044524
-0.75315893 0.057923887 -1.0866238
-0.74276954 0.05806908 -1.0836166
-0.73566425 0.058535319 -1.0832742
-0.72326058 0.05932356 -1.0832831
-0.7154699 0.059343588 -1.0828478
-0.70441264 0.059213903 -1.0820221
-0.69481188 0.058836792 -1.0808374
-0.68429643 0.059044275 -1.082486
-0.67640537 0.058565598 -1.0826707
-0.66449553 0.057417519 -1.0822537
-0.65404981 0.057324328 -1.082624
-0.64627916 0.0582425 -1.0835707
-0.63575596 0.056921724 -1.0823685
-0.62549686 0.058661126 -1.0839603
-0.61481357 0.057834297 -1.0833284
-0.60291445 0.0575478 -1.0834361
-0.59477252 0.05726184 -1.0831885
-0.58486897 0.05730205 -1.0837295
-0.57394558 0.057139181 -1.0835944
-0.5658133 0.056672048 -1.0843555
-0.55471611 0.056695245 -1.0849066
-0.54510266 0.056821901 -1.0850588
-0.53677094 0.056058489 -1.0848941
-0.52500832 0.055659633 -1.0846391
-0.51486129 0.056021489 -1.0849167
-0.50630587 0.055543229 -1.084591
-0.49523148 0.05594866 -1.0860287
-0.48538494 0.055775996 -1.0856154
-0.47329655 0.055456731 -1.085548
-0.46568409 0.056382515 -1.0868635
-0.45525739 0.055807386 -1.086799
-0.44470403 0.055005126 -1.0854837
-0.43467784 0.054826871 -1.0854754
-0.42497602 0.055035394 -1.0857602
-0.41425765 0.055366777 -1.0861795
-0.4048014 0.054787442 -1.0857865
-0.39457479 0.054497719 -1.085743
-0.38436365 0.054400347 -1.0857015
-0.37540251 0.054558832 -1.0864444
-0.36440498 0.05438311 -1.0860132
-0.35599849 0.054000888 -1.0861927
-0.343355 0.053695593 -1.0852488
-0.33596963 0.054116666 -1.086599
-0.32384583 0.05365745 -1.0855427
-0.31546268 0.054049097 -1.0864992
-0.30466622 0.053335082 -1.0863605
-0.29490507 0.054086033 -1.087411
-0.2841633 0.054041538 -1.0873594
-0.27444699 0.052936211 -1.0860914
-0.26651597 0.053527933 -1.0869644
-0.2553944 0.053776786 -1.0869689
-0.24615273 0.053843599 -1.0868422
-0.23545943 0.053406123 -1.0868763
-0.2261283 0.054439642 -1.0878373
-0.21507618 0.052603293 -1.0871041
-0.20660101 0.052810196 -1.0872159
-0.1954765 0.053304318 -1.0879167
-0.18620363 0.052704275 -1.0875053
-0.17564017 0.051968839 -1.0874044
-0.16437623 0.052595507 -1.0884124
-0.15543398 0.052421659 -1.0884148
-0.14644864 0.052005485 -1.0882324
-0.1354308 0.053070992 -1.0889796
-0.1249668 0.052454427 -1.0895922
-0.1157798 0.052604735 -1.0898404
-0.10436221 0.051132672 -1.0890262
-0.094986677 0.051679909 -1.0884224
-0.085134745 0.052357115 -1.0911093
-0.074100792 0.051277816 -1.0890521
-0.065396681 0.0503968 -1.0891619
-0.055420414 0.051468283 -1.0907224
-0.045205884 0.050905798 -1.0906289
-0.036429055 0.051339097 -1.0915976
-0.025396436 0.050230045 -1.0901992
-0.016076164 0.050349358 -1.0909225
-0.0047577317 0.049680348 -1.0897884
0.0051343613 0.050339993 -1.0906006
0.015344116 0.049238399 -1.0897486
0.023990827 0.049703799 -1.0888368
0.034475636 0.049969878 -1.0892657
0.045035534 0.050238129 -1.0910386
0.053621516 0.048750386 -1.0886186
0.064218342 0.049315609 -1.0906575
0.073729262 0.049817409 -1.0913724
0.084130242 0.049711552 -1.0906419
0.094101273 0.048621126 -1.0910952
